# .PCD v0.7 - Point Cloud Data file format
VERSION 0.7
FIELDS x y z rgb
SIZE 4 4 4 4
TYPE F F F F
COUNT 1 1 1 1
WIDTH 891
HEIGHT 1
VIEWPOINT 0 0 0 1 0 0 0
POINTS 891
DATA ascii
-12.25772285 -7.52765131 -5.512444973 2.204051908e-38
-12.23616695 -7.582330227 -5.516415596 2.204051908e-38
-12.22731113 -7.64503479 -5.526232243 2.204051908e-38
-12.19387341 -7.761188507 -5.539144039 2.204051908e-38
-12.16284657 -7.810310364 -5.539267063 2.204051908e-38
-11.97356892 -8.033168793 -5.525493622 2.204051908e-38
-11.91313076 -8.132266045 -5.527596951 2.204051908e-38
-11.76472759 -8.311394691 -5.520043373 2.204051908e-38
-11.73298264 -8.43118763 -5.536773205 2.204051908e-38
-11.67715168 -8.462454796 -5.526436329 2.204051908e-38
-11.65119553 -8.515293121 -5.530307293 2.204051908e-38
-11.5712595 -8.600439072 -5.525008202 2.204051908e-38
-11.55237865 -8.658708572 -5.532566547 2.204051908e-38
-11.41171646 -8.770184517 -5.515455246 2.204051908e-38
-11.41543198 -8.846263885 -5.534394741 2.204051908e-38
-11.36135769 -8.877692223 -5.525438309 2.204051908e-38
-11.32501411 -8.922841072 -5.525160789 2.204051908e-38
-11.30149174 -8.978178024 -5.531247616 2.204051908e-38
-11.24738216 -9.009180069 -5.522445679 2.204051908e-38
-11.21484947 -9.057368279 -5.524307728 2.204051908e-38
-11.11088371 -9.196962357 -5.527330399 2.204051908e-38
-11.07573414 -9.243161201 -5.528283596 2.204051908e-38
-11.04502583 -9.293117523 -5.531558514 2.204051908e-38
-10.97452068 -9.309388161 -5.514944553 2.204051908e-38
-10.95318604 -9.36727047 -5.523104191 2.204051908e-38
-10.89650726 -9.394921303 -5.513524532 2.204051908e-38
-10.89485264 -9.470103264 -5.531905174 2.204051908e-38
-10.7499485 -9.57417202 -5.516557693 2.204051908e-38
-10.71117878 -9.617136955 -5.516457081 2.204051908e-38
-10.67630291 -9.66361618 -5.51845932 2.204051908e-38
-10.670228 -9.736446381 -5.535505772 2.204051908e-38
-10.60660744 -9.756820679 -5.52280426 2.204051908e-38
-10.55051994 -9.863001823 -5.534712315 2.204051908e-38
-10.49934292 -9.894548416 -5.528685093 2.204051908e-38
-10.39070797 -10.03150463 -5.534785748 2.204051908e-38
-10.33051395 -10.05394173 -5.524206638 2.204051908e-38
-10.28244495 -10.08794975 -5.520139694 2.204051908e-38
-10.23297596 -10.20216465 -5.537438393 2.204051908e-38
-10.08831692 -10.3035059 -5.526001453 2.204051908e-38
-10.02520466 -10.4050951 -5.537077904 2.204051908e-38
-9.954043388 -10.41471195 -5.520853519 2.204051908e-38
-9.94836235 -10.49288559 -5.541052818 2.204051908e-38
-9.870992661 -10.49547577 -5.521420002 2.204051908e-38
-9.833045006 -10.53970051 -5.523844719 2.204051908e-38
-9.73955822 -10.60922241 -5.51906395 2.204051908e-38
-9.664047241 -10.69836807 -5.524839401 2.204051908e-38
-9.452898026 -10.89714909 -5.528244495 2.204051908e-38
-9.352293968 -10.95797443 -5.520776749 2.204051908e-38
-9.175789833 -11.19924355 -5.548278332 2.204051908e-38
-9.11242485 -11.21357632 -5.537185669 2.204051908e-38
-9.042060852 -11.31170464 -5.549567699 2.204051908e-38
-8.986578941 -11.33544731 -5.543443203 2.204051908e-38
-8.932385445 -11.36059761 -5.53813982 2.204051908e-38
-8.871242523 -11.37665939 -5.52853775 2.204051908e-38
-8.836812973 -11.4269371 -5.535663605 2.204051908e-38
-8.80652523 -11.4828701 -5.545567513 2.204051908e-38
-8.749611855 -11.50413609 -5.538804054 2.204051908e-38
-8.709341049 -11.54722118 -5.542647362 2.204051908e-38
-8.646575928 -11.56038761 -5.532236099 2.204051908e-38
-8.604088783 -11.60052204 -5.534848213 2.204051908e-38
-8.572016716 -11.65491009 -5.544312 2.204051908e-38
-8.530607224 -11.69682121 -5.547888756 2.204051908e-38
-8.478339195 -11.72386456 -5.544505596 2.204051908e-38
-8.419457436 -11.7415638 -5.53682375 2.204051908e-38
-8.389837265 -11.80012989 -5.548492908 2.204051908e-38
-8.328050613 -11.81349373 -5.538990498 2.204051908e-38
-8.283462524 -11.8511095 -5.54097414 2.204051908e-38
-8.238343239 -11.8880682 -5.542720795 2.204051908e-38
-8.142950058 -11.95456696 -5.54302454 2.204051908e-38
-8.091426849 -11.98217869 -5.540698528 2.204051908e-38
-8.011648178 -12.07217789 -5.552351952 2.204051908e-38
-7.976736546 -12.12508869 -5.561894417 2.204051908e-38
-7.896660328 -12.10911655 -5.539959908 2.204051908e-38
-7.809563637 -12.18860054 -5.547419071 2.204051908e-38
-7.764491558 -12.22617817 -5.550271988 2.204051908e-38
-7.662612915 -12.28285789 -5.547856808 2.204051908e-38
-7.590112686 -12.27627563 -5.531054497 2.204051908e-38
-7.550261497 -12.32228947 -5.538066387 2.204051908e-38
-7.462488651 -12.40176773 -5.546643257 2.204051908e-38
-7.438133717 -12.47454453 -5.565773964 2.204051908e-38
-7.358438969 -12.45443153 -5.54355669 2.204051908e-38
-7.312832832 -12.49165058 -5.546994209 2.204051908e-38
-7.253571033 -12.50538445 -5.540093899 2.204051908e-38
-7.122141361 -12.62731457 -5.55565834 2.204051908e-38
-6.962971687 -12.70066357 -5.550575733 2.204051908e-38
-6.902362347 -12.71104527 -5.542941093 2.204051908e-38
-6.846208572 -12.72935486 -5.538880348 2.204051908e-38
-6.806634426 -12.77877522 -5.548439503 2.204051908e-38
-6.775756359 -12.84488869 -5.56526804 2.204051908e-38
-6.711901665 -12.84875774 -5.555212021 2.204051908e-38
-6.649017811 -12.85401917 -5.545883179 2.204051908e-38
-6.447194576 -12.97078228 -5.55080986 2.204051908e-38
-6.344771862 -13.02645111 -5.552625656 2.204051908e-38
-6.302438259 -13.0728178 -5.561546326 2.204051908e-38
-6.250488281 -13.09932518 -5.562084675 2.204051908e-38
-6.193215847 -13.11469936 -5.55799818 2.204051908e-38
-6.142343044 -13.14364433 -5.55975914 2.204051908e-38
-6.086249352 -13.16120338 -5.556788921 2.204051908e-38
-6.033118725 -13.1851902 -5.556634426 2.204051908e-38
-5.935838699 -13.2531786 -5.564989567 2.204051908e-38
-5.882202625 -13.27634239 -5.564747334 2.204051908e-38
-5.815179348 -13.26876736 -5.551726818 2.204051908e-38
-5.760651112 -13.28935146 -5.550606728 2.204051908e-38
-5.7121315 -13.32395649 -5.55542469 2.204051908e-38
-5.496480465 -13.41240025 -5.55472374 2.204051908e-38
-5.453251839 -13.46087456 -5.565676689 2.204051908e-38
-5.186726093 -13.58124065 -5.571208477 2.204051908e-38
-5.073021889 -13.61080265 -5.566425323 2.204051908e-38
-4.996264935 -13.57137775 -5.542043209 2.204051908e-38
-4.841744423 -13.65737534 -5.552912235 2.204051908e-38
-4.7897892 -13.68526268 -5.55637598 2.204051908e-38
-4.736003399 -13.70809841 -5.557871819 2.204051908e-38
-4.611330032 -13.70320129 -5.540677071 2.204051908e-38
-4.562574863 -13.74079704 -5.548416138 2.204051908e-38
-4.511360645 -13.77141666 -5.553413868 2.204051908e-38
-4.403856277 -13.81781864 -5.557667255 2.204051908e-38
-4.345459938 -13.82639885 -5.554047585 2.204051908e-38
-4.236383438 -13.86820316 -5.55698061 2.204051908e-38
-4.18308115 -13.89335918 -5.560276508 2.204051908e-38
-4.12866354 -13.91498756 -5.562241554 2.204051908e-38
-4.059742928 -13.88718319 -5.544559956 2.204051908e-38
-4.009168148 -13.92172432 -5.5518713 2.204051908e-38
-3.965676308 -13.98182869 -5.569436073 2.204051908e-38
-3.842249155 -13.97367382 -5.553704739 2.204051908e-38
-3.784468174 -13.98319244 -5.551400661 2.204051908e-38
-3.728034019 -13.99757099 -5.551109314 2.204051908e-38
-3.613653421 -14.02038097 -5.548457623 2.204051908e-38
-3.563022137 -14.0574646 -5.557418823 2.204051908e-38
-3.505501747 -14.06783867 -5.555905342 2.204051908e-38
-3.447077274 -14.07428741 -5.552932739 2.204051908e-38
-3.38296771 -14.05683899 -5.54063797 2.204051908e-38
-3.282099247 -14.13634968 -5.561398983 2.204051908e-38
-3.220041513 -14.12658501 -5.552419662 2.204051908e-38
-3.165590763 -14.14997673 -5.556564331 2.204051908e-38
-2.991546392 -14.17209911 -5.550682545 2.204051908e-38
-2.931379557 -14.16871166 -5.544695854 2.204051908e-38
-2.87635994 -14.19003201 -5.548466682 2.204051908e-38
-2.821724653 -14.21373367 -5.553256989 2.204051908e-38
-2.768219948 -14.24378681 -5.560604095 2.204051908e-38
-2.707452536 -14.23644829 -5.553445339 2.204051908e-38
-2.594772816 -14.26803303 -5.55744791 2.204051908e-38
-2.480382442 -14.2907629 -5.558353424 2.204051908e-38
-2.364851236 -14.30690193 -5.557056904 2.204051908e-38
-2.245152235 -13.93053913 -5.407321453 2.204051908e-38
-2.132361412 -13.94346046 -5.405508995 2.204051908e-38
-2.074820518 -13.94202423 -5.401674747 2.204051908e-38
-1.908722878 -13.98201752 -5.407856941 2.204051908e-38
-1.854418635 -14.00409889 -5.413469315 2.204051908e-38
-1.794660687 -13.98458576 -5.403095245 2.204051908e-38
-1.685474396 -14.02604485 -5.413702011 2.204051908e-38
-1.456624508 -14.02146053 -5.402194023 2.204051908e-38
-1.343648076 -14.03061962 -5.40138483 2.204051908e-38
-1.28653729 -14.02833176 -5.398468018 2.204051908e-38
-1.23050487 -14.0376358 -5.400102139 2.204051908e-38
-1.177487612 -14.0833931 -5.415839195 2.204051908e-38
-1.005110741 -14.06229687 -5.402675152 2.204051908e-38
-0.7222666144 -14.07946396 -5.402601719 2.204051908e-38
-0.5529454947 -14.10044003 -5.407693863 2.204051908e-38
-0.4946296215 -14.05638981 -5.389996052 2.204051908e-38
-0.3821117878 -14.07849216 -5.397119045 2.204051908e-38
-0.2692867517 -14.10091591 -5.404708862 2.204051908e-38
-0.1557328999 -14.08641338 -5.398497105 2.204051908e-38
-0.09916899353 -14.09656048 -5.402189732 2.204051908e-38
0.07078232616 -14.08661079 -5.398308754 2.204051908e-38
0.1275885552 -14.10580158 -5.405817509 2.204051908e-38
0.2405251414 -14.0768795 -5.395301342 2.204051908e-38
0.2976952791 -14.10352612 -5.405929089 2.204051908e-38
0.300739944 -11.96760368 -4.587648392 2.222419007e-38
0.3478109837 -11.93065739 -4.573987007 2.222419007e-38
0.5425243974 -11.98815823 -4.598780632 2.222419007e-38
0.6899995208 -14.00040913 -5.371718884 2.204051908e-38
0.8023827672 -13.9916954 -5.370677948 2.204051908e-38
0.857929647 -13.97706127 -5.366342545 2.204051908e-38
0.914837718 -13.98461628 -5.370610714 2.204051908e-38
1.024696469 -13.94224167 -5.357327461 2.204051908e-38
1.084613562 -13.98799038 -5.3765378 2.204051908e-38
1.136927605 -13.93562889 -5.358125687 2.204051908e-38
1.194319844 -13.94706631 -5.364326954 2.204051908e-38
1.24900794 -13.926898 -5.358456135 2.204051908e-38
1.302618384 -13.8965435 -5.348748207 2.204051908e-38
1.360298038 -13.90988636 -5.355947018 2.204051908e-38
1.414804697 -13.89054489 -5.350647449 2.204051908e-38
1.471846104 -13.896245 -5.355077267 2.204051908e-38
1.638955951 -13.87429714 -5.353875637 2.204051908e-38
1.691501498 -13.84134007 -5.343711376 2.204051908e-38
1.743127823 -13.80274868 -5.331473351 2.204051908e-38
1.804441333 -13.84042263 -5.348784924 2.204051908e-38
1.916801214 -13.83373356 -5.351984024 2.204051908e-38
1.793603301 -12.22102547 -4.733486652 2.222419007e-38
1.838551879 -12.18611336 -4.722789288 2.222419007e-38
1.898827195 -12.25153255 -4.751060963 2.222419007e-38
1.944494128 -12.22139454 -4.742366791 2.222419007e-38
2.298958302 -13.73660278 -5.337325573 2.204051908e-38
2.359386444 -13.75772667 -5.349175453 2.204051908e-38
2.412384272 -13.73511219 -5.344110489 2.204051908e-38
2.260416269 -12.28911209 -4.788411617 2.222419007e-38
2.317043543 -12.31843185 -4.803427696 2.222419007e-38
2.46881628 -12.30648804 -4.810030937 2.222419007e-38
2.518976212 -12.29991245 -4.811378479 2.222419007e-38
2.569135427 -12.29320717 -4.812756062 2.222419007e-38
2.627985239 -12.32712364 -4.830132961 2.222419007e-38
2.672808409 -12.29476452 -4.821623325 2.222419007e-38
2.784222126 -12.32890987 -4.84363699 2.222419007e-38
2.829395056 -12.29863071 -4.83617115 2.222419007e-38
2.878794909 -12.28712463 -4.836155891 2.222419007e-38
3.398886919 -13.52405071 -5.343827724 2.204051908e-38
3.451865911 -13.5049448 -5.341718674 2.204051908e-38
3.513256788 -13.51839447 -5.352583885 2.204051908e-38
3.574204445 -13.52927113 -5.362533092 2.204051908e-38
3.438362837 -12.21616173 -4.863353252 2.222419007e-38
3.834902763 -13.41799164 -5.347900867 2.204051908e-38
3.892364025 -13.41470432 -5.352784157 2.204051908e-38
3.946920872 -13.40119076 -5.353679657 2.204051908e-38
4.053204536 -13.36464214 -5.35192585 2.204051908e-38
4.1566782 -13.31930733 -5.346981525 2.204051908e-38
4.218438625 -13.32855797 -5.357458591 2.204051908e-38
4.261044502 -13.27740383 -5.343739033 2.204051908e-38
4.319024086 -13.27441692 -5.349482536 2.204051908e-38
4.429244518 -13.25013733 -5.353877544 2.204051908e-38
4.484518528 -13.23827839 -5.356323719 2.204051908e-38
4.526557922 -13.18769455 -5.343177319 2.204051908e-38
4.687188625 -13.13751125 -5.34536314 2.204051908e-38
4.751061916 -13.14929676 -5.357882023 2.204051908e-38
4.80688858 -13.13829708 -5.361231804 2.204051908e-38
4.900733948 -13.06820488 -5.348536968 2.204051908e-38
4.960669041 -13.0680294 -5.356582642 2.204051908e-38
5.003676891 -13.02328873 -5.34644556 2.204051908e-38
4.795053005 -12.18672562 -5.01867485 2.213235457e-38
4.828893661 -12.12939072 -5.003022194 2.213235457e-38
5.259981155 -12.90921402 -5.341946125 2.204051908e-38
5.359538078 -12.85676956 -5.337900639 2.204051908e-38
5.416202545 -12.84704876 -5.342858791 2.204051908e-38
5.520287037 -12.80534172 -5.343801498 2.204051908e-38
5.567612648 -12.77362156 -5.339860439 2.204051908e-38
5.619958878 -12.7535181 -5.340854645 2.204051908e-38
5.670406342 -12.72906971 -5.340123177 2.204051908e-38
5.728348732 -12.72131824 -5.346487999 2.204051908e-38
5.823090076 -12.65886688 -5.339745045 2.204051908e-38
5.88256979 -12.65392876 -5.347595692 2.204051908e-38
5.915438652 -12.59198093 -5.331417561 2.204051908e-38
5.989559174 -12.61770916 -5.35246563 2.204051908e-38
6.045154095 -12.60378647 -5.356824875 2.204051908e-38
6.08127594 -12.54948139 -5.344088554 2.204051908e-38
6.148075581 -12.55842686 -5.358382225 2.204051908e-38
6.169381618 -12.47470951 -5.333198547 2.204051908e-38
6.341807365 -12.44342327 -5.352133751 2.204051908e-38
6.280665398 -12.20195961 -5.259093761 2.204051908e-38
6.646585464 -12.29891777 -5.357386589 2.204051908e-38
6.773206234 -12.17971611 -5.340659142 2.204051908e-38
6.81762743 -12.14439201 -5.337146759 2.204051908e-38
6.889197826 -12.1571331 -5.35487175 2.204051908e-38
6.924416065 -12.10557365 -5.344377995 2.204051908e-38
6.978833675 -12.08771229 -5.348833084 2.204051908e-38
7.041025639 -12.08298492 -5.35922575 2.204051908e-38
7.107159138 -11.97412682 -5.336114407 2.204051908e-38
7.170653343 -11.97119045 -5.347611427 2.204051908e-38
7.223745823 -11.95057964 -5.351332188 2.204051908e-38
7.276177406 -11.92874813 -5.354608536 2.204051908e-38
7.382734299 -11.88737202 -5.362512112 2.204051908e-38
7.489765167 -11.74137878 -5.337012291 2.204051908e-38
7.553352833 -11.73673058 -5.348657608 2.204051908e-38
7.689108372 -11.63686275 -5.345019817 2.204051908e-38
7.781160355 -11.57279778 -5.344154835 2.204051908e-38
7.850259304 -11.57481194 -5.359612465 2.204051908e-38
7.887144089 -11.52915287 -5.353109837 2.204051908e-38
7.928903103 -11.49078846 -5.350054264 2.204051908e-38
7.962786198 -11.44122982 -5.341841221 2.204051908e-38
8.008519173 -11.40886307 -5.341714859 2.204051908e-38
8.076652527 -11.40812492 -5.356525421 2.204051908e-38
8.427734375 -11.12727261 -5.349193096 2.204051908e-38
8.463710785 -11.08192539 -5.343705177 2.204051908e-38
8.503619194 -11.04187202 -5.340834618 2.204051908e-38
8.569460869 -11.03531647 -5.354282856 2.204051908e-38
8.63035965 -10.93117523 -5.337247849 2.204051908e-38
8.679345131 -10.90281868 -5.340393066 2.204051908e-38
8.733805656 -10.88117123 -5.346947193 2.204051908e-38
8.774113655 -10.84181595 -5.344896317 2.204051908e-38
8.867455482 -10.7787838 -5.34879446 2.204051908e-38
8.945515633 -10.69719601 -5.343825817 2.204051908e-38
9.003139496 -10.67857647 -5.352562904 2.204051908e-38
9.065423965 -10.66516113 -5.364061832 2.204051908e-38
9.115076065 -10.55048943 -5.343075275 2.204051908e-38
9.172009468 -10.53052139 -5.35159111 2.204051908e-38
9.191153526 -10.4672327 -5.338162899 2.204051908e-38
9.237595558 -10.43521595 -5.340731144 2.204051908e-38
9.328619957 -10.36885738 -5.344982147 2.204051908e-38
9.375966072 -10.33761978 -5.34826088 2.204051908e-38
9.489751816 -10.21280289 -5.342514038 2.204051908e-38
9.505048752 -10.14715385 -5.328117847 2.204051908e-38
9.598515511 -10.16473675 -5.357564449 2.204051908e-38
9.616900444 -10.10253334 -5.345114708 2.204051908e-38
9.649449348 -10.05546856 -5.340693474 2.204051908e-38
9.765934944 -9.934228897 -5.338469028 2.204051908e-38
9.839328766 -9.928736687 -5.3567276 2.204051908e-38
9.90383625 -9.834416389 -5.348626614 2.204051908e-38
9.938652992 -9.789967537 -5.346134663 2.204051908e-38
9.982928276 -9.754810333 -5.348813057 2.204051908e-38
10.07366467 -9.686489105 -5.355585575 2.204051908e-38
10.37257195 -9.657641411 -5.431165695 2.204051908e-38
10.43733501 -9.639906883 -5.444741726 2.204051908e-38
10.50905037 -9.628158569 -5.461919308 2.204051908e-38
10.62129879 -9.652746201 -5.500048637 2.204051908e-38
10.66835785 -9.617481232 -5.504346371 2.204051908e-38
10.6735239 -9.544653893 -5.487172127 2.204051908e-38
10.7420454 -9.52849865 -5.502666473 2.204051908e-38
10.77396011 -9.479692459 -5.499448299 2.204051908e-38
10.8215065 -9.444617271 -5.504292965 2.204051908e-38
10.84377289 -9.387524605 -5.496381283 2.204051908e-38
10.90770149 -9.3664217 -5.509654045 2.204051908e-38
10.94573021 -9.322889328 -5.509888649 2.204051908e-38
10.98230743 -9.27812767 -5.50948 2.204051908e-38
10.99672794 -9.214804649 -5.498085976 2.204051908e-38
11.0339613 -9.170763969 -5.498230457 2.204051908e-38
11.06216335 -9.119261742 -5.49396944 2.204051908e-38
11.11774158 -9.090258598 -5.503381729 2.204051908e-38
11.12486935 -9.021717072 -5.488912582 2.204051908e-38
11.18983459 -9.00006485 -5.503064632 2.204051908e-38
11.2295599 -8.957907677 -5.504844189 2.204051908e-38
11.25583172 -8.905061722 -5.500132084 2.204051908e-38
11.31374264 -8.877160072 -5.510946751 2.204051908e-38
11.32921791 -8.815957069 -5.501179695 2.204051908e-38
11.39878654 -8.723864555 -5.50072813 2.204051908e-38
11.43896008 -8.681912422 -5.503220558 2.204051908e-38
11.57052517 -8.492059708 -5.500110626 2.204051908e-38
11.59500122 -8.438508034 -5.49557209 2.204051908e-38
11.64062023 -8.329385757 -5.485277176 2.204051908e-38
11.72887325 -8.250763893 -5.495426178 2.204051908e-38
11.80603695 -8.163945198 -5.500648499 2.204051908e-38
11.81662369 -8.101255417 -5.490364075 2.204051908e-38
11.91482353 -8.028528214 -5.505822182 2.204051908e-38
11.94359303 -7.909038067 -5.489554882 2.204051908e-38
12.00535774 -7.880701542 -5.503336906 2.204051908e-38
12.05249786 -7.842493057 -5.510448933 2.204051908e-38
12.04592133 -7.769472599 -5.493119717 2.204051908e-38
12.07561588 -7.720051765 -5.492467403 2.204051908e-38
12.19038963 -7.656075478 -5.516490936 2.204051908e-38
12.24183273 -7.551822662 -5.512115002 2.204051908e-38
12.29804611 -7.38325882 -5.49693346 2.204051908e-38
12.35348606 -7.28207016 -5.495368004 2.204051908e-38
12.40101433 -7.243066311 -5.503513336 2.204051908e-38
12.38765717 -7.168707371 -5.484751225 2.204051908e-38
12.43754101 -7.130922318 -5.494101048 2.204051908e-38
12.49125195 -7.095141411 -5.505182743 2.204051908e-38
12.49015141 -7.028254032 -5.492198944 2.204051908e-38
12.55388927 -6.997813702 -5.507813931 2.204051908e-38
12.59453201 -6.888344288 -5.501169205 2.204051908e-38
12.57463741 -6.811934471 -5.480472565 2.204051908e-38
12.66529369 -6.795323372 -5.508031368 2.204051908e-38
12.69820118 -6.682072163 -5.498804092 2.204051908e-38
12.74322796 -6.640493393 -5.506697655 2.204051908e-38
12.7525053 -6.580281734 -5.499231815 2.204051908e-38
12.79886436 -6.539169312 -5.507842541 2.204051908e-38
12.85340118 -6.437254906 -5.508862019 2.204051908e-38
12.93128681 -6.282334805 -5.509366035 2.204051908e-38
12.93670559 -6.220811367 -5.500972271 2.204051908e-38
12.97994423 -6.177513599 -5.508759975 2.204051908e-38
12.981987 -6.114595413 -5.499148846 2.204051908e-38
13.00693417 -6.062555313 -5.499346256 2.204051908e-38
13.06809616 -5.900293827 -5.494721413 2.204051908e-38
13.12486362 -5.799361706 -5.498806477 2.204051908e-38
13.15521526 -5.749684811 -5.501796722 2.204051908e-38
13.17758274 -5.696469307 -5.501527786 2.204051908e-38
13.21746063 -5.588012218 -5.499240398 2.204051908e-38
13.24269009 -5.536037445 -5.500433922 2.204051908e-38
13.26074982 -5.481067657 -5.498739719 2.204051908e-38
13.33782864 -5.325517654 -5.503668785 2.204051908e-38
13.33077431 -5.260667801 -5.491986275 2.204051908e-38
13.39618683 -5.22433567 -5.510238171 2.204051908e-38
13.43004894 -5.113550186 -5.507078171 2.204051908e-38
13.40358734 -5.041864395 -5.48787117 2.204051908e-38
13.4542408 -4.99928093 -5.500337601 2.204051908e-38
13.45745945 -4.938993454 -5.493492603 2.204051908e-38
13.55617046 -4.729312897 -5.502029896 2.204051908e-38
13.52206039 -4.656525135 -5.480543137 2.204051908e-38
13.57108402 -4.612470627 -5.492853642 2.204051908e-38
13.64969063 -4.578046322 -5.517176628 2.204051908e-38
13.62037182 -4.50739336 -5.49795866 2.204051908e-38
13.64153004 -4.453632355 -5.499228001 2.204051908e-38
13.6528368 -4.39666748 -5.49661541 2.204051908e-38
13.69029045 -4.348074436 -5.504615784 2.204051908e-38
13.68923569 -4.287226677 -5.497214794 2.204051908e-38
13.70957375 -4.233167171 -5.498507023 2.204051908e-38
13.69429684 -4.168223381 -5.485613346 2.204051908e-38
13.75333977 -4.065663815 -5.495993137 2.204051908e-38
13.7785387 -3.952931166 -5.493182659 2.204051908e-38
13.85305882 -3.914120674 -5.516578197 2.204051908e-38
13.8711586 -3.799059868 -5.511443615 2.204051908e-38
13.87541676 -3.740346432 -5.507117271 2.204051908e-38
13.92421055 -3.454861879 -5.497806549 2.204051908e-38
13.93914509 -3.339892864 -5.492925644 2.204051908e-38
13.96393681 -3.286508799 -5.497443676 2.204051908e-38
13.96419621 -3.227370739 -5.49239254 2.204051908e-38
14.01001072 -3.178709984 -5.505343437 2.204051908e-38
14.04756165 -3.127912045 -5.515112877 2.204051908e-38
14.01610756 -3.061818123 -5.497889996 2.204051908e-38
14.0509119 -2.951272964 -5.502055168 2.204051908e-38
14.05991936 -2.894203186 -5.500982285 2.204051908e-38
14.0485096 -2.715622425 -5.483303547 2.204051908e-38
14.0797348 -2.545921803 -5.483108997 2.204051908e-38
14.13968945 -2.439528465 -5.498640537 2.204051908e-38
14.1480217 -2.323989391 -5.494436264 2.204051908e-38
14.15079403 -2.266060829 -5.491932392 2.204051908e-38
14.18970871 -2.038859844 -5.493599892 2.204051908e-38
14.23617458 -1.987154841 -5.508450031 2.204051908e-38
14.19689941 -1.865443945 -5.487273693 2.204051908e-38
14.25447559 -1.814735055 -5.506663799 2.204051908e-38
14.23429585 -1.754043102 -5.496098995 2.204051908e-38
14.27871704 -1.643100977 -5.507972717 2.204051908e-38
14.27167988 -1.584177375 -5.502756596 2.204051908e-38
14.2845335 -1.469443202 -5.502979755 2.204051908e-38
14.31388378 -1.240228772 -5.505892754 2.204051908e-38
14.29246235 -1.122676015 -5.494003773 2.204051908e-38
14.33773232 -1.010318995 -5.50810194 2.204051908e-38
14.32302952 -0.8358317018 -5.498179913 2.204051908e-38
14.32177258 -0.7779992819 -5.496455669 2.204051908e-38
14.34397221 -0.7213792205 -5.503817081 2.204051908e-38
14.33352661 -0.6053738594 -5.497764111 2.204051908e-38
14.3747263 -0.4335245192 -5.511162281 2.204051908e-38
14.32839489 -0.259227097 -5.491797924 2.204051908e-38
14.3248167 -0.08638465405 -5.489628792 2.204051908e-38
14.32413006 -0.02878654003 -5.489276886 2.204051908e-38
14.31570435 0.1438744962 -5.486314297 2.204051908e-38
14.37005138 0.2021909803 -5.507409573 2.204051908e-38
14.35931396 0.2597865164 -5.503649235 2.204051908e-38
14.35974312 0.3175453544 -5.504256725 2.204051908e-38
14.33797932 0.4324112535 -5.497071743 2.204051908e-38
14.30928993 0.5467264056 -5.487579823 2.204051908e-38
14.32938385 0.6051889658 -5.496173382 2.204051908e-38
14.33401012 0.6631175876 -5.498926163 2.204051908e-38
14.3333149 0.7208477855 -5.499725342 2.204051908e-38
14.33331871 0.7786262631 -5.50088501 2.204051908e-38
14.31143284 0.8351507187 -5.493732452 2.204051908e-38
14.30806732 1.008218765 -5.496704578 2.204051908e-38
14.30107689 1.065523148 -5.495621681 2.204051908e-38
14.30102253 1.181211948 -5.499072552 2.204051908e-38
14.29107189 1.238237262 -5.497117043 2.204051908e-38
14.26721478 1.293980598 -5.489895344 2.204051908e-38
14.29026031 1.354018569 -5.500813484 2.204051908e-38
14.2830658 1.411282539 -5.500184059 2.204051908e-38
14.28372383 1.469359279 -5.50266552 2.204051908e-38
14.2587595 1.524739623 -5.49536562 2.204051908e-38
14.27056408 1.642152429 -5.504825592 2.204051908e-38
14.24429703 1.755274773 -5.499958515 2.204051908e-38
14.23468685 1.81221056 -5.499018192 2.204051908e-38
14.22392845 1.868975639 -5.497719288 2.204051908e-38
14.23126602 1.928177238 -5.503508091 2.204051908e-38
14.19714737 1.981702566 -5.493350029 2.204051908e-38
14.21848392 2.042984486 -5.504739285 2.204051908e-38
14.21185017 2.100373268 -5.505393982 2.204051908e-38
14.17125702 2.152614832 -5.49297905 2.204051908e-38
14.16900921 2.268972635 -5.499001503 2.204051908e-38
14.13606262 2.322015762 -5.489792824 2.204051908e-38
14.15661335 2.442437887 -5.505219936 2.204051908e-38
14.09599304 2.548855782 -5.489438057 2.204051908e-38
14.11635113 2.611171961 -5.501409531 2.204051908e-38
14.10883713 2.668481588 -5.50261879 2.204051908e-38
14.11191559 2.727868319 -5.508049965 2.204051908e-38
14.08319855 2.781099558 -5.501161098 2.204051908e-38
14.05738544 2.834766388 -5.495486259 2.204051908e-38
14.07409477 2.956081867 -5.511129379 2.204051908e-38
14.02413464 3.004498959 -5.49625206 2.204051908e-38
13.99842072 3.057902813 -5.490947247 2.204051908e-38
13.96022415 3.285590172 -5.495980263 2.204051908e-38
13.95722866 3.344155312 -5.500048161 2.204051908e-38
13.94088268 3.399549961 -5.498948097 2.204051908e-38
13.93355942 3.457172394 -5.501499176 2.204051908e-38
13.87257767 3.620181799 -5.494258881 2.204051908e-38
13.86139202 3.676846266 -5.49563694 2.204051908e-38
13.833354 3.728987217 -5.490420818 2.204051908e-38
13.78295135 3.954198122 -5.494943619 2.204051908e-38
13.78121948 4.013735771 -5.500642776 2.204051908e-38
13.77103138 4.070888996 -5.503063202 2.204051908e-38
13.76678562 4.129881859 -5.507956505 2.204051908e-38
13.72501373 4.17756319 -5.497917652 2.204051908e-38
13.72602272 4.23823452 -5.505102158 2.204051908e-38
13.69702721 4.289665699 -5.500341892 2.204051908e-38
13.6431303 4.393538475 -5.49270916 2.204051908e-38
13.62206268 4.447277069 -5.491380692 2.204051908e-38
13.61590481 4.566724777 -5.503520489 2.204051908e-38
13.55389595 4.667484283 -5.493447304 2.204051908e-38
13.52748394 4.71930027 -5.490386963 2.204051908e-38
13.51385403 4.836773396 -5.500462055 2.204051908e-38
13.49763584 4.892258167 -5.501820564 2.204051908e-38
13.47787571 4.946482658 -5.501828671 2.204051908e-38
13.43780899 5.054731846 -5.501882076 2.204051908e-38
13.37944508 5.217822075 -5.503352642 2.204051908e-38
13.30279732 5.249628544 -5.480461121 2.204051908e-38
13.32581806 5.320732117 -5.498713017 2.204051908e-38
13.30457973 5.374347687 -5.498818398 2.204051908e-38
13.26072598 5.481060505 -5.49873209 2.204051908e-38
13.23319721 5.657473087 -5.515206337 2.204051908e-38
13.18340302 5.698974609 -5.503956795 2.204051908e-38
13.13951969 5.742813587 -5.495230675 2.204051908e-38
13.09801006 5.850534916 -5.497364521 2.204051908e-38
13.09605122 5.912923336 -5.506474018 2.204051908e-38
13.03744698 6.013119698 -5.501983643 2.204051908e-38
12.97668552 6.048476696 -5.486557484 2.204051908e-38
12.9929285 6.119743347 -5.503782749 2.204051908e-38
12.94875336 6.162658215 -5.495521069 2.204051908e-38
12.9525919 6.228471756 -5.507729053 2.204051908e-38
12.82221031 6.293197155 -5.473628998 2.204051908e-38
12.61006451 6.315382481 -5.404566765 2.204051908e-38
12.47900105 6.312606335 -5.359228134 2.204051908e-38
12.45199299 6.36195612 -5.358571053 2.204051908e-38
12.41708088 6.407190323 -5.354584694 2.204051908e-38
12.35235119 6.436800003 -5.337787628 2.204051908e-38
12.24939823 6.699573994 -5.350414753 2.204051908e-38
12.11058235 6.943445683 -5.349671364 2.204051908e-38
12.08128166 6.9913311 -5.34910059 2.204051908e-38
11.96047878 7.18057394 -5.346046448 2.204051908e-38
11.91221046 7.216906071 -5.33739996 2.204051908e-38
11.8866663 7.26691103 -5.338998795 2.204051908e-38
11.81021023 7.417308331 -5.344450474 2.204051908e-38
11.77322674 7.460233212 -5.341239929 2.204051908e-38
11.77146339 7.525617599 -5.354122162 2.204051908e-38
11.6859684 7.604003906 -5.34287262 2.204051908e-38
11.65219402 7.6488657 -5.341444492 2.204051908e-38
11.66122723 7.722054005 -5.359772682 2.204051908e-38
11.56351757 7.791809082 -5.343486786 2.204051908e-38
11.51840305 7.828916073 -5.337134361 2.204051908e-38
11.46827698 7.930389881 -5.343280315 2.204051908e-38
11.37543678 8.070683479 -5.344983578 2.204051908e-38
11.37538147 8.139596939 -5.360290051 2.204051908e-38
11.30301666 8.156711578 -5.341599941 2.204051908e-38
11.26039219 8.26444149 -5.352684021 2.204051908e-38
11.21883488 8.303534508 -5.348754406 2.204051908e-38
11.1915226 8.353164673 -5.351698875 2.204051908e-38
11.1009798 8.425396919 -5.340621471 2.204051908e-38
11.08271599 8.481966019 -5.348199368 2.204051908e-38
11.04835606 8.526314735 -5.348112583 2.204051908e-38
10.98015308 8.544323921 -5.331678867 2.204051908e-38
10.90778637 8.629703522 -5.330060959 2.204051908e-38
10.88480568 8.682894707 -5.335845947 2.204051908e-38
10.7816925 8.815470695 -5.337024689 2.204051908e-38
10.78217602 8.888426781 -5.35490942 2.204051908e-38
10.73274612 8.920398712 -5.348128796 2.204051908e-38
10.69761372 8.964154243 -5.3485322 2.204051908e-38
10.66288567 9.008257866 -5.349230289 2.204051908e-38
10.60849571 9.035639763 -5.340126514 2.204051908e-38
10.57758236 9.082927704 -5.34290266 2.204051908e-38
10.55874157 9.140763283 -5.351903439 2.204051908e-38
10.50929165 9.172104836 -5.345482826 2.204051908e-38
10.39733315 9.297656059 -5.345183372 2.204051908e-38
10.38524151 9.362251282 -5.358275414 2.204051908e-38
10.31292057 9.372472763 -5.340353489 2.204051908e-38
10.20428658 9.500958443 -5.343050957 2.204051908e-38
10.16631031 9.542181969 -5.343205929 2.204051908e-38
10.1320858 9.586968422 -5.345433235 2.204051908e-38
10.03959942 9.653608322 -5.337413788 2.204051908e-38
10.01621819 9.708928108 -5.345689774 2.204051908e-38
9.979580879 9.751533508 -5.347019672 2.204051908e-38
9.961816788 9.812776566 -5.35859251 2.204051908e-38
9.900212288 9.830804825 -5.346667767 2.204051908e-38
9.873792648 9.883716583 -5.353810787 2.204051908e-38
9.827530861 9.916810036 -5.350299358 2.204051908e-38
9.68741703 10.01412868 -5.339385033 2.204051908e-38
9.594976425 10.07950497 -5.332930565 2.204051908e-38
9.507056236 10.23143673 -5.352257252 2.204051908e-38
9.408455849 10.2899971 -5.343151569 2.204051908e-38
9.325282097 10.3651371 -5.343067169 2.204051908e-38
9.296884537 10.41749954 -5.350749969 2.204051908e-38
9.184843063 10.46004009 -5.334495544 2.204051908e-38
9.079437256 10.59502506 -5.347100258 2.204051908e-38
9.042238235 10.6378603 -5.350335121 2.204051908e-38
9.004487038 10.68016338 -5.353359222 2.204051908e-38
8.960080147 10.7145977 -5.352523327 2.204051908e-38
8.865879059 10.77685356 -5.347839355 2.204051908e-38
8.830929756 10.822752 -5.352956295 2.204051908e-38
8.785075188 10.85535526 -5.351573467 2.204051908e-38
8.738181114 10.88662148 -5.349622726 2.204051908e-38
8.70173645 10.93093109 -5.354166508 2.204051908e-38
8.646584511 10.95171642 -5.347281456 2.204051908e-38
8.617560387 11.00564957 -5.356654644 2.204051908e-38
8.501777649 11.03948116 -5.339677811 2.204051908e-38
8.479039192 11.10199451 -5.353384018 2.204051908e-38
8.441111565 11.14492893 -5.357680321 2.204051908e-38
8.401184082 11.18536758 -5.360839367 2.204051908e-38
8.328676224 11.18214703 -5.343208313 2.204051908e-38
8.234443665 11.24319458 -5.340569019 2.204051908e-38
8.194229126 11.28316879 -5.343867779 2.204051908e-38
8.159383774 11.33069611 -5.350800514 2.204051908e-38
8.130831718 11.38730335 -5.362053394 2.204051908e-38
8.076129913 11.40738678 -5.356182098 2.204051908e-38
8.015693665 11.41907501 -5.346498489 2.204051908e-38
7.958681107 11.43535137 -5.339095592 2.204051908e-38
7.927380562 11.48859024 -5.349030495 2.204051908e-38
7.770781994 11.55736637 -5.337030411 2.204051908e-38
7.73178196 11.59979248 -5.342222214 2.204051908e-38
7.712558746 11.67235184 -5.361316204 2.204051908e-38
7.664368629 11.70142269 -5.360476017 2.204051908e-38
7.594406128 11.69691563 -5.344385624 2.204051908e-38
7.553603172 11.7371254 -5.348835468 2.204051908e-38
7.508247375 11.77034569 -5.350180149 2.204051908e-38
7.369733334 11.8664465 -5.35307312 2.204051908e-38
7.320850849 11.89414501 -5.352249622 2.204051908e-38
7.231329441 11.96310806 -5.356945515 2.204051908e-38
7.178589821 11.98442554 -5.353525639 2.204051908e-38
7.020435333 12.04763412 -5.343551636 2.204051908e-38
6.966453075 12.0662632 -5.339344501 2.204051908e-38
6.936984062 12.12753201 -5.354077339 2.204051908e-38
6.874645233 12.13142681 -5.343552589 2.204051908e-38
6.822910786 12.15379047 -5.341276646 2.204051908e-38
6.792315006 12.21406746 -5.355724335 2.204051908e-38
6.596393108 12.32423115 -5.356818676 2.204051908e-38
6.542286396 12.34212494 -5.353127003 2.204051908e-38
6.490237236 12.36379623 -5.351163387 2.204051908e-38
6.42982769 12.36928082 -5.342307091 2.204051908e-38
6.387509823 12.4095335 -5.348558903 2.204051908e-38
6.333037376 12.42620087 -5.344728947 2.204051908e-38
6.245611668 12.50210381 -5.355603218 2.204051908e-38
6.199810028 12.53622723 -5.359501839 2.204051908e-38
5.991995335 12.62282276 -5.354636669 2.204051908e-38
5.836462975 12.68793678 -5.352007866 2.204051908e-38
5.692630768 12.77894688 -5.361049175 2.204051908e-38
5.624762058 12.76440811 -5.3454175 2.204051908e-38
5.579750538 12.80147457 -5.351504803 2.204051908e-38
5.52624464 12.81915665 -5.349565506 2.204051908e-38
5.426531315 12.87154961 -5.353049278 2.204051908e-38
5.278189182 12.9539175 -5.360441685 2.204051908e-38
5.148113251 12.93122101 -5.333749771 2.204051908e-38
5.01941061 13.06423187 -5.363253593 2.204051908e-38
4.859791279 13.11922836 -5.361376286 2.204051908e-38
4.8042202 13.13099861 -5.35825491 2.204051908e-38
4.7590909 13.17150974 -5.366932869 2.204051908e-38
4.686827183 13.13651276 -5.344955921 2.204051908e-38
4.637109756 13.16409492 -5.348549843 2.204051908e-38
4.584207535 13.18280792 -5.348624229 2.204051908e-38
4.488370895 13.24965096 -5.360927105 2.204051908e-38
4.420031548 13.2225666 -5.342738628 2.204051908e-38
4.272693157 13.31369305 -5.358346462 2.204051908e-38
4.163846016 13.34227657 -5.35620594 2.204051908e-38
4.055716038 13.37290955 -5.355237961 2.204051908e-38
3.889856815 13.40605545 -5.349337578 2.204051908e-38
3.787213087 13.45560837 -5.35678339 2.204051908e-38
3.730382681 13.46096897 -5.352906227 2.204051908e-38
3.67427206 13.46862698 -5.35003376 2.204051908e-38
3.566385031 13.49967766 -5.350805759 2.204051908e-38
3.510019779 13.50592041 -5.347644329 2.204051908e-38
3.466419697 13.56188107 -5.364236832 2.204051908e-38
3.411751747 13.57523632 -5.36405611 2.204051908e-38
2.902891397 11.7501049 -4.638231277 2.222419007e-38
2.789801836 11.49055767 -4.531313419 2.222419007e-38
2.727513313 11.43429089 -4.504765511 2.222419007e-38
2.693621159 11.49673939 -4.525064468 2.222419007e-38
2.592629433 11.4805212 -4.510330677 2.222419007e-38
2.754961729 12.43174171 -4.879646301 2.213235457e-38
2.577551365 11.85662174 -4.649800777 2.222419007e-38
2.543466806 11.93067074 -4.674791336 2.222419007e-38
2.409332752 11.76455879 -4.601962566 2.222419007e-38
2.380190849 11.86468029 -4.637347698 2.222419007e-38
2.342917442 11.92731953 -4.658110142 2.222419007e-38
2.267131329 11.79196739 -4.601656437 2.222419007e-38
2.259241819 12.01115894 -4.683607101 2.222419007e-38
2.195504189 11.93620777 -4.650906563 2.222419007e-38
2.135742426 11.87954426 -4.625442028 2.222419007e-38
2.071145058 11.79225254 -4.588176727 2.222419007e-38
2.054178238 11.97800732 -4.65720129 2.222419007e-38
1.800250649 11.61553764 -4.504428864 2.222419007e-38
1.664014339 11.66422653 -4.515196323 2.222419007e-38
1.818747759 13.95017147 -5.391198158 2.204051908e-38
1.758707047 13.92604733 -5.379101753 2.204051908e-38
1.704407573 13.94689655 -5.38446331 2.204051908e-38
1.652131915 13.98592377 -5.396921635 2.204051908e-38
1.019181967 8.935920715 -3.446605921 2.249969656e-38
0.9371429682 8.847867966 -3.409625769 2.249969656e-38
0.8985741735 8.822177887 -3.39830637 2.249969656e-38
0.8624774218 8.819327354 -3.395846367 2.259153205e-38
0.7943994999 8.857838631 -3.408106327 2.249969656e-38
0.7261162996 8.900226593 -3.422055483 2.249969656e-38
1.033939958 14.06797314 -5.405639172 2.204051908e-38
0.9203656316 14.06919098 -5.403090477 2.204051908e-38
0.8636769652 14.07065105 -5.402273178 2.204051908e-38
0.8069905639 14.07204247 -5.401520252 2.204051908e-38
0.75218606 14.10848522 -5.414304256 2.204051908e-38
0.6947014928 14.0958786 -5.40834856 2.204051908e-38
0.6362772584 14.05971432 -5.393451691 2.204051908e-38
0.5796208382 14.05886936 -5.392187595 2.204051908e-38
0.4683053195 14.11530685 -5.412216663 2.204051908e-38
0.4121504426 14.13754368 -5.420061111 2.204051908e-38
0.240697667 14.08720207 -5.39925909 2.204051908e-38
0.1842078567 14.09842396 -5.403232574 2.204051908e-38
0.1274538487 14.08996773 -5.39975071 2.204051908e-38
-0.09913865477 14.09332275 -5.400948048 2.204051908e-38
-0.2126427591 14.10524654 -5.405996799 2.204051908e-38
-0.2693653405 14.10465717 -5.406139851 2.204051908e-38
-0.3260135353 14.10153008 -5.405404091 2.204051908e-38
-0.3830558062 14.11291313 -5.41031456 2.204051908e-38
-0.4961692393 14.10000324 -5.406719685 2.204051908e-38
-0.5519778728 14.07581997 -5.398254871 2.204051908e-38
-0.6088132262 14.07927227 -5.400471687 2.204051908e-38
-0.7225692868 14.08537483 -5.404865265 2.204051908e-38
-0.8368740678 14.09718418 -5.411806583 2.204051908e-38
-0.9486274719 14.06695175 -5.402950764 2.204051908e-38
-1.063615799 14.08440781 -5.412766457 2.204051908e-38
-1.117725134 14.04858971 -5.400681973 2.204051908e-38
-1.230643868 14.03925228 -5.40072298 2.204051908e-38
-1.288106203 14.04543304 -5.405051231 2.204051908e-38
-1.344417572 14.03867912 -5.404487133 2.204051908e-38
-1.402207494 14.04687595 -5.409767628 2.204051908e-38
-1.458185315 14.03645897 -5.407973289 2.204051908e-38
-1.571741581 14.03109837 -5.410600662 2.204051908e-38
-1.681824207 13.99568844 -5.401985645 2.204051908e-38
-1.736575246 13.97676182 -5.397331238 2.204051908e-38
-1.853924513 14.00039291 -5.412034035 2.204051908e-38
-1.968794465 14.00183201 -5.418540001 2.204051908e-38
-2.077438354 13.9596138 -5.408489227 2.204051908e-38
-2.136310101 13.96923161 -5.415500164 2.204051908e-38
-2.190064907 13.94538212 -5.409621716 2.204051908e-38
-2.241588593 13.9084034 -5.398732662 2.204051908e-38
-2.297029495 13.89658356 -5.397681713 2.204051908e-38
-2.413346291 13.90451241 -5.408125401 2.204051908e-38
-2.58050561 13.87256622 -5.407410145 2.204051908e-38
-2.632465124 13.84206963 -5.399608612 2.204051908e-38
-2.69051671 13.84394646 -5.404515266 2.204051908e-38
-2.825413227 14.23228645 -5.560506344 2.204051908e-38
-2.935851574 14.19028282 -5.553140163 2.204051908e-38
-3.000480413 14.21443748 -5.567263603 2.204051908e-38
-3.055011272 14.19024181 -5.562552452 2.204051908e-38
-3.223472834 14.14162159 -5.558327675 2.204051908e-38
-3.280992508 14.13155174 -5.559511185 2.204051908e-38
-3.342047691 14.13633537 -5.566632271 2.204051908e-38
-3.38620019 14.07024956 -5.545920372 2.204051908e-38
-3.455814362 14.1099205 -5.566991806 2.204051908e-38
-3.504054785 14.06200504 -5.553600311 2.204051908e-38
-3.55065918 14.0087595 -5.538166046 2.204051908e-38
-3.671781778 14.01259327 -5.55117178 2.204051908e-38
-3.730586529 14.00710583 -5.554895401 2.204051908e-38
-3.789913893 14.0032959 -5.559381962 2.204051908e-38
-3.842397213 13.9741888 -5.553915501 2.204051908e-38
-3.902315617 13.97214127 -5.559288502 2.204051908e-38
-4.060193539 13.88869572 -5.545168877 2.204051908e-38
-4.168144226 13.84374523 -5.540421486 2.204051908e-38
-4.343250275 13.81939316 -5.551232815 2.204051908e-38
-4.393358707 13.78482914 -5.544397831 2.204051908e-38
-4.452214241 13.77783394 -5.548738003 2.204051908e-38
-4.572231293 13.76984215 -5.560144424 2.204051908e-38
-4.617109776 13.72034359 -5.547609329 2.204051908e-38
-4.673252583 13.70470619 -5.548839092 2.204051908e-38
-4.72603035 13.67921638 -5.546164513 2.204051908e-38
-4.790875912 13.68836784 -5.557636261 2.204051908e-38
-4.843885422 13.66343307 -5.555373192 2.204051908e-38
-4.890632153 13.62116432 -5.546136856 2.204051908e-38
-4.958345413 13.63712406 -5.560710907 2.204051908e-38
-5.00288105 13.5892868 -5.54935503 2.204051908e-38
-5.071942329 13.60786343 -5.565224648 2.204051908e-38
-5.121334076 13.5734024 -5.559504032 2.204051908e-38
-5.162447453 13.51761436 -5.545111656 2.204051908e-38
-5.285056114 13.51170254 -5.559935093 2.204051908e-38
-5.383179188 13.44293499 -5.549272537 2.204051908e-38
-5.448280334 13.44861889 -5.560615063 2.204051908e-38
-5.4913311 13.39986229 -5.549534798 2.204051908e-38
-5.557787895 13.40814114 -5.562171936 2.204051908e-38
-5.601662159 13.36189842 -5.552284718 2.204051908e-38
-5.659766674 13.34973812 -5.556642532 2.204051908e-38
-5.704598904 13.30636978 -5.548091888 2.204051908e-38
-5.764641762 13.29855061 -5.554449558 2.204051908e-38
-5.872593403 13.254529 -5.55560112 2.204051908e-38
-5.986682892 13.22393703 -5.562774181 2.204051908e-38
-6.093072891 13.17595959 -5.563019753 2.204051908e-38
-6.124107838 13.10453415 -5.543211937 2.204051908e-38
-6.184468746 13.09615707 -5.550142765 2.204051908e-38
-6.246375084 13.09071159 -5.558431625 2.204051908e-38
-6.299055576 13.06573391 -5.558531761 2.204051908e-38
-6.341360569 13.01940918 -5.549627304 2.204051908e-38
-6.450670719 12.97774887 -5.55379343 2.204051908e-38
-6.615289688 12.91577721 -5.561011791 2.204051908e-38
-6.657565594 12.87053204 -5.553010941 2.204051908e-38
-6.778607845 12.85029984 -5.567615986 2.204051908e-38
-6.820659637 12.80501556 -5.559831142 2.204051908e-38
-6.857522488 12.75044727 -5.548056126 2.204051908e-38
-6.927170753 12.75673962 -5.562869549 2.204051908e-38
-7.015492916 12.67529583 -5.551773548 2.204051908e-38
-7.071543217 12.65621471 -5.555820942 2.204051908e-38
-7.130044937 12.64130402 -5.561813831 2.204051908e-38
-7.172717571 12.59833813 -5.555552959 2.204051908e-38
-7.282821178 12.55585384 -5.562458992 2.204051908e-38
-7.32609272 12.51428795 -5.557044506 2.204051908e-38
-7.38136673 12.49322987 -5.560826302 2.204051908e-38
-7.480059624 12.43096256 -5.559702873 2.204051908e-38
-7.5163517 12.37835693 -5.549643517 2.204051908e-38
-7.657133579 12.2740736 -5.543888569 2.204051908e-38
-7.718093395 12.26174736 -5.552292824 2.204051908e-38
-7.754196644 12.20996571 -5.54291296 2.204051908e-38
-7.815248966 12.19746017 -5.551456451 2.204051908e-38
-8.083456039 12.07472134 -5.568425179 2.204051908e-38
-8.103192329 11.99958229 -5.548748016 2.204051908e-38
-8.153878212 11.97059631 -5.550460339 2.204051908e-38
-8.190243721 11.9207201 -5.542551994 2.204051908e-38
-8.252755165 11.90885162 -5.552411079 2.204051908e-38
-8.350498199 11.84532356 -5.553919315 2.204051908e-38
-8.40355587 11.81939888 -5.55755806 2.204051908e-38
-8.448708534 11.78231239 -5.556047916 2.204051908e-38
-8.493803978 11.74521542 -5.55461216 2.204051908e-38
-8.590421677 11.67990494 -5.556204796 2.204051908e-38
-8.664190292 11.58391476 -5.543499947 2.204051908e-38
-8.72964859 11.57411766 -5.555563927 2.204051908e-38
-8.91899395 11.43787193 -5.558291435 2.204051908e-38
-9.000303268 11.35274506 -5.551907539 2.204051908e-38
-9.109417915 11.30252647 -5.562980652 2.204051908e-38
-9.16293335 11.27583122 -5.567931175 2.204051908e-38
-9.158660889 11.1784668 -5.537987709 2.204051908e-38
-9.237831116 11.18309212 -5.558630943 2.204051908e-38
-9.260048866 11.11866474 -5.545063496 2.204051908e-38
-9.368984222 11.06727886 -5.556827545 2.204051908e-38
-9.389935493 11.00204277 -5.54297924 2.204051908e-38
-9.451239586 10.98413467 -5.553053379 2.204051908e-38
-9.504040718 10.95609665 -5.558149338 2.204051908e-38
-9.5623703 10.93424034 -5.566515923 2.204051908e-38
-9.587992668 10.87500286 -5.555938244 2.204051908e-38
-9.792926788 10.66733742 -5.549302578 2.204051908e-38
-9.897295952 10.6085453 -5.559934616 2.204051908e-38
-9.924440384 10.55228519 -5.551310062 2.204051908e-38
-10.00730324 10.4704237 -5.55038929 2.204051908e-38
-10.18104458 10.31492424 -5.55403471 2.204051908e-38
-10.26586914 10.23495007 -5.55523777 2.204051908e-38
-10.43066216 10.07006741 -5.556067467 2.204051908e-38
-10.50624657 9.981091499 -5.553400993 2.204051908e-38
-10.62256241 9.850632668 -5.551687241 2.204051908e-38
-10.79234219 9.689988136 -5.55824995 2.204051908e-38
-10.82927036 9.644824028 -5.557264805 2.204051908e-38
-10.87878323 9.610780716 -5.562804222 2.204051908e-38
-10.89742088 9.549512863 -5.552654743 2.204051908e-38
-10.93707466 9.506809235 -5.55334425 2.204051908e-38
-11.01402473 9.41930294 -5.553778648 2.204051908e-38
-11.06438828 9.385665894 -5.560123444 2.204051908e-38
-11.09523296 9.335390091 -5.556717873 2.204051908e-38
-11.12799168 9.286775589 -5.554368496 2.204051908e-38
-11.1775732 9.252173424 -5.560504436 2.204051908e-38
-11.2271204 9.217400551 -5.56667614 2.204051908e-38
-11.26160145 9.170157433 -5.565446854 2.204051908e-38
-11.27074814 9.028002739 -5.533986092 2.204051908e-38
-11.37044048 9.033016205 -5.565038681 2.204051908e-38
-11.50428104 8.84131813 -5.5601964 2.204051908e-38
-11.56259155 8.739174843 -5.554236412 2.204051908e-38
-11.63924217 8.650972366 -5.557476997 2.204051908e-38
-11.68647957 8.613376617 -5.563466549 2.204051908e-38
-11.76141167 8.523480415 -5.566294193 2.204051908e-38
-11.79817963 8.406301498 -5.551542759 2.204051908e-38
-11.82858562 8.356445313 -5.549968243 2.204051908e-38
-11.87699986 8.319344521 -5.556992531 2.204051908e-38
-11.89407635 8.260243416 -5.549411774 2.204051908e-38
-11.94068527 8.221605301 -5.555661201 2.204051908e-38
-12.00909805 8.127192497 -5.556921482 2.204051908e-38
-12.10639095 7.912309647 -5.542395592 2.204051908e-38
-12.15346813 7.873482704 -5.549376488 2.204051908e-38
-12.15313435 7.804100037 -5.534862995 2.204051908e-38
-12.26566124 7.669016838 -5.543573856 2.204051908e-38
-12.30388069 7.624208927 -5.546890259 2.204051908e-38
-12.32258606 7.567462444 -5.541596889 2.204051908e-38
-12.32813454 7.502739429 -5.530448914 2.204051908e-38
-12.37311554 7.462154388 -5.537151814 2.204051908e-38
-12.40383816 7.412920952 -5.537567139 2.204051908e-38
-12.40997505 7.348998547 -5.527048588 2.204051908e-38
-12.44946671 7.304956913 -5.531517506 2.204051908e-38
-12.45464802 7.240823269 -5.520829678 2.204051908e-38
-12.50298309 7.201847076 -5.529387951 2.204051908e-38
-12.56711769 7.104849339 -5.532310486 2.204051908e-38
-12.55478096 7.031430244 -5.514394283 2.204051908e-38
-12.65886211 6.956614971 -5.53536272 2.204051908e-38
-12.68129826 6.902714729 -5.532993793 2.204051908e-38
-12.69062805 6.841803551 -5.525019169 2.204051908e-38
-12.71612072 6.789726257 -5.524192333 2.204051908e-38
-12.77484322 6.689641476 -5.526156425 2.204051908e-38
-12.79592228 6.635279179 -5.523694038 2.204051908e-38
-12.838624 6.526977062 -5.519291401 2.204051908e-38
-12.9340477 6.44515276 -5.537857533 2.204051908e-38
-12.95435429 6.390399933 -5.535511017 2.204051908e-38
-12.94467545 6.321044922 -5.520471096 2.204051908e-38
-12.97992039 6.273762226 -5.524699688 2.204051908e-38
-13.02452469 6.166646957 -5.522406101 2.204051908e-38
-13.09140778 6.006130695 -5.519648075 2.204051908e-38
-13.12544441 5.95799017 -5.523855686 2.204051908e-38
-13.17242527 5.915568829 -5.533576012 2.204051908e-38
-13.22359467 5.811235905 -5.535265446 2.204051908e-38
-13.18549442 5.731380939 -5.509628773 2.204051908e-38
-13.25083447 5.696545601 -5.52731514 2.204051908e-38
-13.35635185 5.489172935 -5.533794403 2.204051908e-38
-13.39032936 5.377709389 -5.529779434 2.204051908e-38
-13.4320631 5.331866741 -5.538116932 2.204051908e-38
-13.44723701 5.275414467 -5.535585403 2.204051908e-38
-13.44664764 5.212913036 -5.526671886 2.204051908e-38
-13.45961761 5.155794621 -5.523437977 2.204051908e-38
-13.46864033 5.097259998 -5.518687248 2.204051908e-38
-13.52270126 4.993797302 -5.524209499 2.204051908e-38
-13.54156113 4.877414227 -5.51571703 2.204051908e-38
-13.61896896 4.78194046 -5.531406403 2.204051908e-38
-13.61133862 4.717890739 -5.520558834 2.204051908e-38
-13.65602112 4.671966553 -5.531020641 2.204051908e-38
-13.64044666 4.605476856 -5.517169952 2.204051908e-38
-13.68451118 4.559155941 -5.527534008 2.204051908e-38
-13.69940472 4.503013611 -5.526195526 2.204051908e-38
