# .PCD v0.7 - Point Cloud Data file format
VERSION 0.7
FIELDS x y z rgb
SIZE 4 4 4 4
TYPE F F F F
COUNT 1 1 1 1
WIDTH 892
HEIGHT 1
VIEWPOINT 0 0 0 1 0 0 0
POINTS 892
DATA ascii
8.169047356 -16.85784721 -1.373532891 2.176501259e-38
8.23618412 -16.82372284 -1.373439431 2.176501259e-38
8.307507515 -16.79806709 -1.374061227 2.176501259e-38
8.396974564 -16.80858612 -1.377671957 2.167317709e-38
8.478295326 -16.80208588 -1.379921556 2.167317709e-38
8.556550026 -16.78901291 -1.381661177 2.167317709e-38
8.627995491 -16.7623024 -1.382306695 2.167317709e-38
8.722720146 -16.78021812 -1.386663914 2.167317709e-38
8.902878761 -16.79543495 -1.393792033 2.167317709e-38
8.989254951 -16.79488564 -1.396733403 2.167317709e-38
9.164671898 -16.79662704 -1.402961135 2.167317709e-38
9.396566391 -16.73831558 -1.407454133 2.167317709e-38
9.595330238 -16.77499008 -1.416978836 2.167317709e-38
9.70703125 -16.81307793 -1.423481107 2.167317709e-38
9.776958466 -16.7780571 -1.423832893 2.167317709e-38
9.861073494 -16.76709747 -1.42625463 2.167317709e-38
9.963418007 -16.78632736 -1.431285858 2.167317709e-38
10.05233574 -16.78205872 -1.434355974 2.167317709e-38
10.11843491 -16.7393837 -1.434174061 2.167317709e-38
10.40582657 -16.75504112 -1.446161985 2.167317709e-38
10.5083828 -16.76937866 -1.451034427 2.167317709e-38
10.5918684 -16.75255203 -1.453251362 2.167317709e-38
10.68589973 -16.75179863 -1.456900835 2.15813416e-38
10.7743988 -16.74173355 -1.459780216 2.15813416e-38
10.98739338 -16.77477646 -1.470316172 2.15813416e-38
11.058321 -16.73589706 -1.470793247 2.15813416e-38
11.2667141 -16.75679398 -1.480542541 2.15813416e-38
11.36014557 -16.7499485 -1.483960629 2.15813416e-38
11.44922543 -16.73606682 -1.486796618 2.15813416e-38
11.56134415 -16.75502586 -1.492597938 2.15813416e-38
11.64328766 -16.72950745 -1.494482279 2.15813416e-38
11.76152706 -16.7553463 -1.501001716 2.15813416e-38
11.83784676 -16.72072983 -1.502151728 2.15813416e-38
11.9451685 -16.72930717 -1.507223725 2.15813416e-38
12.04042149 -16.72016907 -1.51074934 2.15813416e-38
12.17124844 -16.7593708 -1.518699408 2.15813416e-38
12.24142933 -16.71426392 -1.51905942 2.15813416e-38
12.4448595 -16.70857048 -1.52758503 2.15813416e-38
12.53887844 -16.69428253 -1.530875325 2.14895061e-38
12.65962124 -16.71469116 -1.537400365 2.14895061e-38
12.75315475 -16.69828796 -1.540595531 2.14895061e-38
12.95698547 -16.68535233 -1.548962355 2.14895061e-38
13.06062603 -16.67996407 -1.55332458 2.14895061e-38
13.16715813 -16.6774559 -1.558008075 2.14895061e-38
13.29562569 -16.70168686 -1.565251708 2.14895061e-38
13.50161362 -16.68339539 -1.573660016 2.14895061e-38
13.63337898 -16.70840645 -1.581176639 2.14895061e-38
13.72626495 -16.68486977 -1.584157586 2.14895061e-38
14.07075024 -16.68924332 -1.600567937 2.14895061e-38
14.1791048 -16.68122292 -1.6052531 2.14895061e-38
14.43037701 -16.70281601 -1.618443727 2.13976706e-38
14.52154732 -16.67238808 -1.621139407 2.13976706e-38
14.75028992 -16.66261292 -1.631667018 2.13976706e-38
15.10628033 -16.65564346 -1.648705363 2.13976706e-38
15.3770771 -16.6826973 -1.663567424 2.13976706e-38
15.63837337 -16.69480133 -1.677260995 2.13976706e-38
15.82928276 -16.76305199 -1.690493226 2.130583511e-38
16.03175926 -16.84132004 -1.704873919 2.130583511e-38
16.16546059 -16.84565544 -1.711874127 2.130583511e-38
16.30195808 -16.71677017 -1.712045312 2.130583511e-38
16.38428879 -16.66661835 -1.713644028 2.130583511e-38
16.62103081 -16.63775063 -1.724354863 2.130583511e-38
16.88670731 -16.63406372 -1.737986803 2.130583511e-38
17.1545639 -16.62828255 -1.751737714 2.130583511e-38
17.43910408 -16.63422775 -1.767079473 2.130583511e-38
17.83899307 -16.60944557 -1.787171364 2.121399961e-38
17.98831177 -16.61397552 -1.795424938 2.121399961e-38
18.11504364 -16.59659004 -1.801400542 2.121399961e-38
18.26742363 -16.60162735 -1.809903026 2.121399961e-38
18.41074753 -16.59723282 -1.817479014 2.121399961e-38
18.5636425 -16.6002903 -1.825969219 2.121399961e-38
18.84485817 -16.58102608 -1.84045732 2.121399961e-38
18.99258232 -16.57603264 -1.848362446 2.112216412e-38
19.46867561 -16.58220291 -1.875096798 2.112216412e-38
19.60795784 -16.56528473 -1.882082462 2.112216412e-38
14.91288567 -12.3946867 -1.42181778 2.167317709e-38
20.09926414 -16.56912041 -1.909920096 2.112216412e-38
20.27888298 -16.58071709 -1.920638323 2.112216412e-38
20.59808922 -16.56720161 -1.938192964 2.103032862e-38
20.75518799 -16.5565815 -1.946696758 2.103032862e-38
20.91934013 -16.55035591 -1.955836892 2.103032862e-38
21.1124897 -16.56561089 -1.967653513 2.103032862e-38
21.60823441 -16.53748512 -1.995122552 2.103032862e-38
24.35302734 -18.17668152 -2.228150606 2.075482213e-38
24.64032364 -18.08448219 -2.241061211 2.075482213e-38
24.67352676 -17.95667648 -2.237462759 2.075482213e-38
25.17712593 -18.01536179 -2.269958258 2.066298664e-38
25.99256134 -18.12890816 -2.323595762 2.066298664e-38
27.02760887 -18.52960777 -2.402727365 2.057115114e-38
27.26928139 -18.53459167 -2.417568922 2.047931564e-38
27.9228878 -18.49050713 -2.455565453 2.047931564e-38
28.15365982 -18.48095512 -2.469306707 2.047931564e-38
28.40566254 -18.4834137 -2.484872341 2.047931564e-38
28.62703514 -18.4640789 -2.497724295 2.038748015e-38
28.87500191 -18.46007538 -2.51286459 2.038748015e-38
29.10699463 -18.44398117 -2.526581526 2.038748015e-38
29.36992645 -18.44553375 -2.542947531 2.038748015e-38
29.61256409 -18.43235397 -2.557519674 2.038748015e-38
29.87477112 -18.42934608 -2.573745012 2.038748015e-38
30.12998199 -18.419981 -2.589332581 2.029564465e-38
30.38560867 -18.40886879 -2.604917526 2.029564465e-38
33.84038162 -19.22161293 -2.85357976 2.002013816e-38
33.84502792 -19.04473114 -2.847493887 2.002013816e-38
33.84339905 -18.86507034 -2.840952396 2.002013816e-38
33.80274582 -18.66469765 -2.831218243 2.002013816e-38
33.92562866 -18.0269146 -2.816866398 2.011197366e-38
34.05409622 -17.92000961 -2.821529388 2.011197366e-38
34.18964005 -17.81618881 -2.826802492 2.002013816e-38
34.40973663 -17.75536537 -2.839122534 2.002013816e-38
36.27280426 -18.34894562 -2.980525017 1.992830267e-38
37.30751419 -18.31069946 -3.047178745 1.983646717e-38
37.99294281 -18.26956558 -3.091066837 1.974463167e-38
38.74670792 -18.24993896 -3.140352726 1.974463167e-38
39.44050217 -18.19071579 -3.184626341 1.965279618e-38
39.42964935 -17.80267525 -3.17209506 1.965279618e-38
39.79381943 -17.77485657 -3.195612192 1.965279618e-38
40.19777679 -17.76181793 -3.222294092 1.965279618e-38
43.12493515 -18.84836006 -3.450834513 1.937728969e-38
43.10890961 -18.63531876 -3.443529129 1.937728969e-38
43.13776016 -18.03351974 -3.428211212 1.937728969e-38
43.27116394 -17.88527489 -3.43307066 1.937728969e-38
43.38371277 -17.72795677 -3.43631959 1.937728969e-38
45.50995636 -18.17120171 -3.593045473 1.91936187e-38
45.97638702 -18.1434803 -3.624082327 1.91936187e-38
47.01181412 -18.11664963 -3.694094658 1.91017832e-38
47.51826477 -18.09275627 -3.728150129 1.91017832e-38
48.70749664 -17.87604713 -3.804262877 1.90099477e-38
48.71678162 -17.65754509 -3.799406767 1.90099477e-38
49.12823105 -17.58358383 -3.825959206 1.90099477e-38
54.06950378 -18.86309814 -4.198824883 1.864260572e-38
54.2638855 -18.6865921 -4.208051682 1.864260572e-38
54.7286644 -18.355793 -4.232512474 1.855077022e-38
54.92514801 -18.17638779 -4.242022514 1.855077022e-38
36.56857681 -11.93876839 -2.820563555 2.011197366e-38
55.09033585 -17.7409153 -4.243625641 1.855077022e-38
55.3250351 -17.57136154 -4.256231308 1.855077022e-38
55.75157166 -17.46040154 -4.283609867 1.855077022e-38
57.80918121 -17.84996605 -4.436149597 1.836709923e-38
60.24971771 -17.81057739 -4.606612682 1.818342824e-38
60.80714798 -17.70987129 -4.643772602 1.818342824e-38
61.05991745 -17.25217056 -4.652309895 1.818342824e-38
73.05387115 -20.00819397 -5.553733826 1.726507328e-38
73.15894318 -19.72117996 -5.555649757 1.726507328e-38
73.29278564 -19.12652779 -5.553956032 1.726507328e-38
73.37127686 -18.83229065 -5.554122925 1.726507328e-38
73.45589447 -18.53959274 -5.554841042 1.726507328e-38
73.6783905 -17.65340042 -5.555160522 1.726507328e-38
73.74562073 -17.35633659 -5.554924011 1.726507328e-38
73.80715179 -17.05800056 -5.554349422 1.726507328e-38
73.93395233 -16.77451515 -5.558773518 1.726507328e-38
68.23439026 -15.19317341 -5.125612259 1.772425076e-38
74.02497101 -16.17051125 -5.555661678 1.726507328e-38
74.11341858 -15.87793446 -5.557463646 1.726507328e-38
74.15930176 -15.57622051 -5.556162834 1.726507328e-38
74.20884705 -15.27546024 -5.555229187 1.726507328e-38
74.39054108 -14.3799305 -5.555448532 1.726507328e-38
74.43909454 -14.07914734 -5.55480051 1.726507328e-38
60.11217117 -11.11928368 -4.482322693 1.836709923e-38
62.95213318 -11.1219244 -4.687267303 1.809159274e-38
65.8224411 -11.08406925 -4.894191742 1.790792175e-38
74.74780273 -12.27824879 -5.554118156 1.726507328e-38
74.75302124 -11.97069454 -5.550884247 1.726507328e-38
74.76622772 -11.66474247 -5.548336506 1.726507328e-38
74.78911591 -11.36052322 -5.546603203 1.726507328e-38
74.84421539 -10.4470911 -5.540939808 1.726507328e-38
74.86003876 -10.1426754 -5.539049625 1.726507328e-38
74.72975159 -8.903884888 -5.518101215 1.735690877e-38
74.73352814 -8.599814415 -5.51578331 1.735690877e-38
74.77124023 -8.299720764 -5.516058922 1.735690877e-38
74.83336639 -7.698045731 -5.515897751 1.735690877e-38
74.8718338 -7.397979259 -5.516496181 1.735690877e-38
74.90380859 -7.097189903 -5.516704559 1.735690877e-38
74.92670441 -6.492021084 -5.514369488 1.735690877e-38
75.05325317 -6.199104309 -5.521805286 1.735690877e-38
75.01064301 -5.892075062 -5.516881466 1.735690877e-38
75.04129791 -5.591060162 -5.517439842 1.735690877e-38
75.08463287 -5.290888786 -5.51901722 1.735690877e-38
75.11288452 -4.989511013 -5.519573689 1.735690877e-38
75.21504211 -3.47965169 -5.520825863 1.735690877e-38
75.16925049 -3.174746275 -5.516482353 1.735690877e-38
75.23022461 -2.874396801 -5.520065784 1.735690877e-38
75.21352386 -2.268341303 -5.517324448 1.735690877e-38
75.21208191 -1.965722203 -5.516592979 1.735690877e-38
75.24966431 -1.361392856 -5.518369198 1.735690877e-38
75.2663269 -1.059049845 -5.519233227 1.735690877e-38
75.2483902 -0.4537242353 -5.517473698 1.735690877e-38
75.2543335 -0.15124318 -5.517818928 1.735690877e-38
75.31356812 0.1513806731 -5.522161961 1.735690877e-38
75.26325226 0.4538430572 -5.518562794 1.735690877e-38
75.270401 0.7565070391 -5.519266605 1.735690877e-38
75.28422546 1.059277773 -5.520546913 1.735690877e-38
75.25737 1.966878295 -5.519914627 1.735690877e-38
75.25726318 2.269649744 -5.520532131 1.735690877e-38
75.24595642 2.572128296 -5.52041626 1.735690877e-38
75.17331696 2.872211695 -5.515891075 1.735690877e-38
75.15917206 3.477032423 -5.516724586 1.735690877e-38
75.06799316 4.077882767 -5.512260437 1.735690877e-38
74.96183777 5.282196522 -5.509990215 1.735690877e-38
74.89026642 6.185647964 -5.509812832 1.735690877e-38
74.89479065 6.489221096 -5.512020588 1.735690877e-38
74.79166412 7.390038967 -5.510588169 1.735690877e-38
74.75685883 7.690178871 -5.510258675 1.735690877e-38
74.65994263 7.983659744 -5.505435944 1.735690877e-38
74.43797302 9.476683617 -5.50200367 1.735690877e-38
74.54506683 10.09998417 -5.515743256 1.735690877e-38
74.50384521 10.39958763 -5.51573801 1.735690877e-38
74.48444366 10.7022953 -5.517446518 1.735690877e-38
74.64440155 11.33854961 -5.535869122 1.726507328e-38
74.6835022 11.95954895 -5.545721054 1.726507328e-38
74.77333069 12.28240776 -5.556014538 1.726507328e-38
74.7146225 12.58143997 -5.555364132 1.726507328e-38
74.48938751 13.77871323 -5.554374695 1.726507328e-38
74.38179016 14.37822914 -5.554790974 1.726507328e-38
57.9780159 11.44927406 -4.33316946 1.845893473e-38
58.19495392 12.22309494 -4.36008215 1.845893473e-38
50.52841949 11.03771305 -3.792216301 1.90099477e-38
50.33695221 11.20810413 -3.781198263 1.90099477e-38
50.32242584 11.41739464 -3.783525467 1.90099477e-38
50.20468521 11.60307026 -3.778149128 1.90099477e-38
50.21628571 11.81860733 -3.782565832 1.90099477e-38
50.45866394 12.08993626 -3.804454088 1.90099477e-38
43.5549736 10.99286175 -3.293689966 1.956096068e-38
43.37409973 11.13286591 -3.283369303 1.956096068e-38
43.27439499 11.29287624 -3.279231548 1.956096068e-38
43.25328064 11.47329617 -3.281100512 1.956096068e-38
43.06014633 11.60752964 -3.269963503 1.956096068e-38
72.92610931 20.60487938 -5.556433678 1.726507328e-38
72.84894562 20.89967346 -5.556912899 1.726507328e-38
36.50904083 11.43398762 -2.805131435 2.011197366e-38
36.37648392 11.55325413 -2.798492908 2.011197366e-38
36.3945694 11.72026634 -2.803485394 2.011197366e-38
72.03707123 23.51838493 -5.556276798 1.726507328e-38
59.30336761 19.62528229 -4.580164433 1.818342824e-38
58.48827744 19.6167469 -4.523266792 1.827526374e-38
57.63565445 19.58890343 -4.463382721 1.836709923e-38
30.5783844 10.94437599 -2.381351948 2.057115114e-38
30.64616776 11.1078043 -2.39008975 2.057115114e-38
30.6370163 11.24402714 -2.392881155 2.057115114e-38
30.49119949 11.32981396 -2.3850317 2.057115114e-38
30.76213264 11.71278286 -2.413510799 2.047931564e-38
50.46783829 19.44846153 -3.965667009 1.882627671e-38
48.64518356 19.42301941 -3.840573072 1.90099477e-38
47.45793152 19.39278984 -3.759027719 1.91017832e-38
46.92806625 19.3967762 -3.723203421 1.91017832e-38
42.7627449 19.30755424 -3.440233946 1.937728969e-38
23.71232414 10.82118988 -1.911124587 2.112216412e-38
23.24642372 10.72168827 -1.877033472 2.112216412e-38
23.1642704 11.25380611 -1.88828516 2.112216412e-38
23.12112427 11.34794807 -1.888471127 2.112216412e-38
23.28958702 11.54703999 -1.906007767 2.112216412e-38
40.61507416 20.54548264 -3.337325335 1.946912519e-38
40.59207153 20.73921204 -3.342259884 1.946912519e-38
40.6055603 21.15949821 -3.357270479 1.946912519e-38
40.56041336 22.39599419 -3.397219181 1.946912519e-38
40.563797 22.61112785 -3.405088186 1.946912519e-38
40.54616928 22.81542778 -3.411280155 1.946912519e-38
40.54964066 23.68376541 -3.443170309 1.937728969e-38
40.55199051 24.12449646 -3.459728956 1.937728969e-38
40.55562973 24.79368591 -3.485297441 1.937728969e-38
40.49427414 25.20562744 -3.497327805 1.937728969e-38
40.50761414 25.44046021 -3.507284641 1.928545419e-38
16.76135445 10.71570492 -1.458667517 2.15813416e-38
16.57715607 10.69207287 -1.446365476 2.167317709e-38
16.56526375 10.77893448 -1.449096918 2.167317709e-38
16.45699692 10.80289555 -1.443412542 2.167317709e-38
16.45693779 10.89777184 -1.447239041 2.167317709e-38
16.38294029 10.94375896 -1.444589376 2.167317709e-38
16.31191826 10.99141312 -1.442210913 2.167317709e-38
16.6127491 11.29148293 -1.472808838 2.15813416e-38
16.53396606 11.33537102 -1.469852924 2.15813416e-38
40.44825363 28.4536171 -3.626051903 1.91936187e-38
40.41724396 28.67535019 -3.633574963 1.91936187e-38
40.44833374 28.94258118 -3.646802187 1.91936187e-38
40.43045807 29.1762104 -3.655733824 1.91936187e-38
26.0974617 18.99299049 -2.366624594 2.057115114e-38
25.87325668 18.98939133 -2.353196621 2.057115114e-38
25.63486671 18.97344971 -2.338431835 2.057115114e-38
24.98158836 18.96046829 -2.299532175 2.066298664e-38
24.77459145 18.96080971 -2.287476063 2.066298664e-38
24.54923058 18.94530487 -2.273682117 2.066298664e-38
24.32672691 18.93008995 -2.260102987 2.066298664e-38
23.93832207 18.93881035 -2.238092661 2.075482213e-38
13.615098 10.86086845 -1.277004123 2.185684809e-38
23.56747246 18.95547104 -2.217597246 2.075482213e-38
23.36054039 18.94420815 -2.205274582 2.075482213e-38
23.16100883 18.93721771 -2.193606853 2.075482213e-38
22.94826889 18.91771698 -2.180643082 2.075482213e-38
22.56425858 18.90790367 -2.158529043 2.084665763e-38
22.39254761 18.91775894 -2.149360657 2.084665763e-38
22.2157135 18.92192268 -2.13967061 2.084665763e-38
22.02330017 18.91132355 -2.128443718 2.084665763e-38
21.6686058 18.91154289 -2.10879159 2.084665763e-38
21.47650909 18.89651299 -2.097471952 2.084665763e-38
20.41415405 18.85449028 -2.03754878 2.093849312e-38
20.26133156 18.86483765 -2.029848814 2.093849312e-38
20.10216904 18.86807442 -2.021485567 2.093849312e-38
19.94301033 18.8700695 -2.013092756 2.093849312e-38
19.80484581 18.89079475 -2.006794453 2.103032862e-38
10.88141441 10.4630661 -1.106850386 2.204051908e-38
10.70685768 10.63179302 -1.106342554 2.204051908e-38
10.58756638 10.68375587 -1.102855802 2.204051908e-38
10.4930706 10.84695625 -1.106559277 2.204051908e-38
10.59856606 11.04453278 -1.122358918 2.204051908e-38
10.46602535 11.08341694 -1.117723942 2.204051908e-38
17.63142204 18.82251167 -1.891019225 2.112216412e-38
17.34374619 18.8163414 -1.876330137 2.112216412e-38
16.77842522 18.80083656 -1.847640157 2.112216412e-38
23.49020386 26.53561592 -2.598468065 2.029564465e-38
23.0894165 26.50924492 -2.577625751 2.029564465e-38
22.88744164 26.49164009 -2.566946745 2.038748015e-38
22.70316124 26.49287987 -2.558202744 2.038748015e-38
22.56340599 26.54502106 -2.554459095 2.038748015e-38
16.28408813 19.63260078 -1.870232224 2.112216412e-38
16.29455948 19.96980476 -1.889813781 2.112216412e-38
16.3047924 20.14717293 -1.900379658 2.112216412e-38
16.2984848 20.3057518 -1.909142017 2.112216412e-38
16.29001045 20.63283348 -1.927518845 2.103032862e-38
16.28563118 20.79868698 -1.936879516 2.103032862e-38
16.27817154 21.13706589 -1.956140161 2.103032862e-38
16.27681732 21.3119812 -1.966256857 2.103032862e-38
16.27844048 21.4926815 -1.976874232 2.103032862e-38
16.26748276 21.65855598 -1.986100912 2.103032862e-38
16.26733017 22.02490234 -2.00763607 2.093849312e-38
16.25591469 22.1955986 -2.017223597 2.093849312e-38
16.24089241 22.36314583 -2.026499271 2.093849312e-38
16.23659706 22.54729652 -2.037256241 2.093849312e-38
16.2293396 22.72933769 -2.047793388 2.093849312e-38
16.25076103 23.15065384 -2.073913574 2.093849312e-38
16.21203423 23.69817352 -2.105293512 2.084665763e-38
16.21541786 24.11694336 -2.130845547 2.084665763e-38
16.18730354 24.28538513 -2.139961481 2.084665763e-38
16.20667839 24.52752495 -2.155539274 2.084665763e-38
16.2087307 24.74634361 -2.169026375 2.075482213e-38
16.21943283 24.98120499 -2.183880329 2.075482213e-38
16.19187927 25.38327789 -2.207577705 2.075482213e-38
16.17723083 25.58657265 -2.219584703 2.075482213e-38
16.18000412 26.05237961 -2.248634577 2.066298664e-38
16.08646393 26.37249184 -2.265028238 2.066298664e-38
15.96395302 26.40985298 -2.26270771 2.066298664e-38
15.79332256 26.3664341 -2.253528357 2.066298664e-38
15.36809921 26.37287712 -2.238075256 2.075482213e-38
15.22373009 26.36824226 -2.232469797 2.075482213e-38
15.08311844 26.36893845 -2.227376699 2.075482213e-38
14.79097271 26.347435 -2.215444565 2.075482213e-38
14.36500359 26.32752419 -2.19904232 2.075482213e-38
14.23825359 26.34655952 -2.195834398 2.075482213e-38
14.09139252 26.32730675 -2.189490795 2.075482213e-38
13.95296383 26.32247162 -2.184405565 2.075482213e-38
13.81343174 26.31433296 -2.179103851 2.075482213e-38
13.69048405 26.33682442 -2.176392317 2.075482213e-38
13.54630756 26.31747627 -2.170275211 2.075482213e-38
13.40862942 26.30935669 -2.165143251 2.084665763e-38
13.14817238 26.3192215 -2.157185316 2.084665763e-38
13.01649952 26.31977844 -2.152924776 2.084665763e-38
12.86533737 26.27944946 -2.145379066 2.084665763e-38
12.74908733 26.30928993 -2.1436131 2.084665763e-38
12.49699306 26.326334 -2.13674593 2.084665763e-38
12.34938717 26.28764153 -2.129559278 2.084665763e-38
12.10152626 26.30755806 -2.123222351 2.084665763e-38
11.9713335 26.30255127 -2.118915796 2.084665763e-38
11.71362686 26.29500008 -2.110654116 2.084665763e-38
11.58386612 26.28752136 -2.106298208 2.084665763e-38
11.45431328 26.27929115 -2.101932526 2.084665763e-38
11.20590782 26.28429985 -2.095059156 2.084665763e-38
11.07477856 26.26895332 -2.090270519 2.084665763e-38
10.83059597 26.27798271 -2.083992481 2.093849312e-38
10.70559216 26.273983 -2.080245972 2.093849312e-38
10.56757259 26.23657036 -2.073903561 2.093849312e-38
10.4657917 26.28832817 -2.074651957 2.093849312e-38
10.3371563 26.27208138 -2.070074558 2.093849312e-38
10.19184113 26.21151352 -2.06205678 2.093849312e-38
9.978507042 26.28663635 -2.061588287 2.093849312e-38
9.717805862 26.2336216 -2.051236629 2.093849312e-38
9.597165108 26.23116112 -2.048010588 2.093849312e-38
9.34893322 26.20367813 -2.039931536 2.093849312e-38
9.24048996 26.23241997 -2.039259911 2.093849312e-38
9.120886803 26.22890282 -2.036119938 2.093849312e-38
9.00429821 26.23309517 -2.033618927 2.093849312e-38
8.892481804 26.25048065 -2.032179117 2.093849312e-38
8.77764225 26.25837708 -2.030042648 2.093849312e-38
8.649113655 26.22406387 -2.024684668 2.093849312e-38
8.298853874 26.22094727 -2.016571045 2.093849312e-38
8.187427521 26.23502922 -2.01510644 2.093849312e-38
8.065858841 26.21557617 -2.011104822 2.093849312e-38
7.6027174 26.20205688 -2.000429392 2.103032862e-38
7.26290226 26.20786476 -1.99404037 2.103032862e-38
6.693444252 25.33631134 -1.921446323 2.112216412e-38
6.690220356 25.74272346 -1.950212717 2.103032862e-38
6.695961475 26.19696236 -1.982569695 2.103032862e-38
6.676938057 26.56719971 -2.008541346 2.093849312e-38
6.677190304 27.02733421 -2.041282892 2.093849312e-38
6.652012348 27.39805412 -2.067245722 2.093849312e-38
6.668880463 27.95719337 -2.107393742 2.084665763e-38
6.64680624 28.36943626 -2.136436939 2.084665763e-38
2.422495604 11.828866 -0.8853196502 2.231602557e-38
2.407828331 12.00248623 -0.8975817561 2.231602557e-38
2.341360569 11.91939163 -0.8906564116 2.231602557e-38
2.289568424 11.90868378 -0.8891620636 2.231602557e-38
2.258655071 12.00804615 -0.8958951235 2.231602557e-38
2.197411537 11.94658661 -0.8906441927 2.231602557e-38
2.102756739 11.97220039 -0.8912639618 2.231602557e-38
2.035803556 12.164217 -0.9043114185 2.231602557e-38
6.423928738 39.35486221 -2.923773527 1.992830267e-38
6.408777714 40.27968597 -2.990542889 1.992830267e-38
6.369890213 42.22015762 -3.13070631 1.974463167e-38
6.35065794 43.27099228 -3.206710339 1.965279618e-38
2.5732131 18.0374279 -1.335932732 2.176501259e-38
2.502747774 18.06249619 -1.337033868 2.176501259e-38
2.383397102 17.72500992 -1.311331987 2.176501259e-38
2.239757299 17.73518181 -1.310709953 2.176501259e-38
2.109847546 17.8605957 -1.318682194 2.176501259e-38
1.018221617 8.927467346 -0.6588196158 2.259153205e-38
0.9734275341 8.850601196 -0.6528541446 2.259153205e-38
0.9358663559 8.835820198 -0.6514799595 2.259153205e-38
0.8977814913 8.814395905 -0.6496301293 2.259153205e-38
0.7913067341 8.823353767 -0.6495395899 2.259153205e-38
1.896763921 24.46207237 -1.79899478 2.121399961e-38
1.826137066 31.84342003 -2.338663101 2.057115114e-38
1.458187103 32.221035 -2.36493206 2.057115114e-38
1.257542014 37.90387344 -2.780721903 2.011197366e-38
1.300901055 51.76610947 -3.796798706 1.90099477e-38
1.093969941 51.82637024 -3.800866604 1.90099477e-38
0.6852751374 75.75641632 -5.554850578 1.726507328e-38
0.07613770664 75.74583435 -5.553848743 1.726507328e-38
-0.8376319408 75.77036285 -5.555985451 1.726507328e-38
-0.9404414296 62.3817215 -4.574479103 1.827526374e-38
-1.446578622 75.74642944 -5.554903507 1.726507328e-38
-2.360744476 75.75005341 -5.556853294 1.726507328e-38
-3.273165941 75.69495392 -5.555302143 1.726507328e-38
-3.577462435 75.68199158 -5.555360317 1.726507328e-38
-3.882463455 75.68289185 -5.556529045 1.726507328e-38
-4.794421196 75.62293243 -5.555967808 1.726507328e-38
-5.101493359 75.64842224 -5.559301853 1.726507328e-38
-5.401183605 75.56674957 -5.554850101 1.726507328e-38
-6.312225342 75.49799347 -5.554986477 1.726507328e-38
-6.615844727 75.47383118 -5.555119991 1.726507328e-38
-7.529299259 75.42645264 -5.557912827 1.726507328e-38
-8.128842354 75.30168915 -5.553355694 1.726507328e-38
-8.438742638 75.33327484 -5.558143616 1.726507328e-38
-8.733996391 75.23382568 -5.553350925 1.726507328e-38
-9.337761879 75.15480042 -5.552880287 1.726507328e-38
-9.647063255 75.17321014 -5.557059765 1.726507328e-38
-9.941142082 75.07334137 -5.552586079 1.726507328e-38
-10.24869633 75.0753479 -5.555738926 1.726507328e-38
-11.15703964 74.97143555 -5.557600498 1.726507328e-38
-11.4457016 74.84289551 -5.551439285 1.726507328e-38
-12.05175304 74.77812958 -5.553640842 1.726507328e-38
-12.35444927 74.74932861 -5.55506897 1.726507328e-38
-12.65807819 74.71121979 -5.556053638 1.726507328e-38
-12.95768261 74.65603638 -5.555778027 1.726507328e-38
-13.85925579 74.50688934 -5.556706429 1.726507328e-38
-14.15701866 74.44134521 -5.55602026 1.726507328e-38
-14.45269108 74.36582184 -5.554679871 1.726507328e-38
-15.65045357 74.14234161 -5.556067467 1.726507328e-38
-16.53842735 73.92580414 -5.554383278 1.726507328e-38
-16.82736015 73.82289886 -5.551692486 1.726507328e-38
-17.43097878 73.73042297 -5.555096149 1.726507328e-38
-17.727108 73.65908051 -5.555047035 1.726507328e-38
-18.0161972 73.5592041 -5.552930832 1.726507328e-38
-18.32116508 73.52400208 -5.555787563 1.726507328e-38
-18.62198639 73.4709549 -5.557394981 1.726507328e-38
-18.91940117 73.40419769 -5.558051109 1.726507328e-38
-19.50325012 73.22824097 -5.556420326 1.726507328e-38
-20.08027077 73.02902222 -5.553373337 1.726507328e-38
-20.67238998 72.88487244 -5.55487442 1.726507328e-38
-21.56683159 72.68750763 -5.559250832 1.726507328e-38
-21.8522377 72.57841492 -5.557572842 1.726507328e-38
-22.72244072 72.29850006 -5.556725979 1.726507328e-38
-23.0112915 72.20136261 -5.556326866 1.726507328e-38
-23.57462311 71.96413422 -5.552475929 1.726507328e-38
-23.87195778 71.89349365 -5.554384708 1.726507328e-38
-24.16934395 71.82241821 -5.55635643 1.726507328e-38
-24.74905968 71.6346817 -5.557043552 1.726507328e-38
-25.02699471 71.50652313 -5.554859161 1.726507328e-38
-22.22519112 62.69185638 -4.877010822 1.790792175e-38
-25.60595703 71.31647491 -5.555914402 1.726507328e-38
-26.17819405 71.10759735 -5.555859089 1.726507328e-38
-26.46182632 70.99625397 -5.555426121 1.726507328e-38
-26.74330139 70.87957764 -5.554662228 1.726507328e-38
-23.63027573 59.00982666 -4.66074419 1.818342824e-38
-23.62433243 58.31466675 -4.613300323 1.818342824e-38
-23.60699081 56.95176697 -4.520350456 1.827526374e-38
-23.57064629 55.59619522 -4.427657127 1.836709923e-38
-23.54710579 54.32123947 -4.341058254 1.845893473e-38
-23.5432415 53.71953201 -4.300498009 1.855077022e-38
-23.53279686 53.1138916 -4.259552002 1.855077022e-38
-23.51449203 51.94100189 -4.18051672 1.864260572e-38
-23.50682259 51.37332535 -4.142398834 1.864260572e-38
-23.47453499 49.19629669 -3.996782541 1.882627671e-38
-23.47093201 48.68422699 -3.962814093 1.882627671e-38
-23.45655823 48.15854263 -3.92766881 1.891811221e-38
-23.44264793 47.64258194 -3.89324069 1.891811221e-38
-23.4200592 46.64611053 -3.827076674 1.90099477e-38
-23.39884758 45.23508072 -3.734189749 1.91017832e-38
-23.4131279 44.82026672 -3.707686186 1.91017832e-38
-23.39469719 44.34968185 -3.676506996 1.91936187e-38
-23.37873459 43.89090729 -3.64623642 1.91936187e-38
-23.3598423 42.60893631 -3.562885046 1.928545419e-38
-23.36597443 42.21666336 -3.537907839 1.928545419e-38
-23.33528709 41.76404572 -3.507809639 1.928545419e-38
-23.33382416 41.36997604 -3.482562065 1.937728969e-38
-23.32440758 40.96754456 -3.456550121 1.937728969e-38
-23.29294968 38.71008682 -3.312530518 1.956096068e-38
-23.2996273 38.37118149 -3.291517019 1.956096068e-38
-23.27782822 37.99019623 -3.266836643 1.956096068e-38
-23.29053116 37.33376312 -3.226387262 1.965279618e-38
-23.25195694 36.94040298 -3.20044589 1.965279618e-38
-23.26616096 36.63550186 -3.182107687 1.965279618e-38
-23.25495911 36.29465866 -3.160596132 1.974463167e-38
-23.2662487 35.9928627 -3.142435074 1.974463167e-38
-23.25196457 35.34423065 -3.102026224 1.974463167e-38
-23.21603584 34.98252487 -3.07844615 1.974463167e-38
-23.22526169 34.09666061 -3.024921179 1.983646717e-38
-23.50555611 33.91888809 -3.025816441 1.983646717e-38
-33.63295746 46.50762558 -4.208290577 1.864260572e-38
-33.64944077 46.13869858 -4.187092781 1.864260572e-38
-33.62056732 45.32910156 -4.138054848 1.864260572e-38
-26.06980896 34.56445694 -3.174381971 1.965279618e-38
-26.07998085 34.29034042 -3.15888381 1.974463167e-38
-26.08125305 33.72577667 -3.126123428 1.974463167e-38
-26.05651474 33.41536713 -3.106977701 1.974463167e-38
-26.05286598 33.13515472 -3.090653896 1.974463167e-38
-26.06440926 32.87694931 -3.076261044 1.983646717e-38
-26.23877907 32.8249855 -3.081259251 1.974463167e-38
-26.42918205 32.79204941 -3.088088274 1.974463167e-38
-26.65151215 32.79714966 -3.098576307 1.974463167e-38
-44.04511261 53.31992722 -5.070895672 1.772425076e-38
-44.23692322 53.11577606 -5.068353176 1.772425076e-38
-44.4513855 52.93906784 -5.068500996 1.772425076e-38
-44.69117737 52.79226685 -5.071605682 1.772425076e-38
-44.87392426 52.57805634 -5.06831646 1.772425076e-38
-45.12532425 52.44415665 -5.072855949 1.772425076e-38
-45.30665588 52.22880936 -5.069599628 1.772425076e-38
-45.49309158 52.01974487 -5.067018032 1.772425076e-38
-45.7364502 51.87572098 -5.070856571 1.772425076e-38
-45.93716812 51.68302155 -5.07003212 1.772425076e-38
-46.1442337 51.49757385 -5.069997311 1.772425076e-38
-42.41204453 46.57352066 -4.618638992 1.818342824e-38
-42.38084793 46.16502762 -4.595066071 1.818342824e-38
-42.39346695 45.80783463 -4.576409817 1.827526374e-38
-42.38191986 45.06309128 -4.535915852 1.827526374e-38
-42.35725784 44.67560959 -4.514041901 1.827526374e-38
-42.62326813 44.59577179 -4.523073673 1.827526374e-38
-42.94729996 44.57463837 -4.538584232 1.827526374e-38
-33.42983246 34.41857147 -3.518079996 1.928545419e-38
-33.39571381 34.10806656 -3.500157833 1.937728969e-38
-33.4235611 33.86307144 -3.488674164 1.937728969e-38
-33.4013176 33.56957626 -3.472256422 1.937728969e-38
-33.39935684 33.29883194 -3.458127737 1.937728969e-38
-33.40084457 33.03361893 -3.444541693 1.937728969e-38
-33.49304962 32.59635162 -3.426823616 1.937728969e-38
-33.74868011 32.58195496 -3.439569473 1.937728969e-38
-34.00325394 32.56466675 -3.452188969 1.937728969e-38
-50.29663086 47.39929199 -5.067425728 1.772425076e-38
-50.53910446 47.24569321 -5.07268095 1.772425076e-38
-50.90153503 46.82328796 -5.071107388 1.772425076e-38
-51.08573532 46.61505127 -5.07075119 1.772425076e-38
-25.84093857 23.01458168 -2.537225008 2.038748015e-38
-25.86421776 22.84955978 -2.530494928 2.038748015e-38
-25.86206436 22.66317368 -2.521348238 2.038748015e-38
-25.85971451 22.4779892 -2.512263775 2.038748015e-38
-25.858778 22.29533005 -2.503396511 2.038748015e-38
-25.82178879 21.7260685 -2.474281788 2.047931564e-38
-25.82543945 21.37689018 -2.458129406 2.047931564e-38
-25.84486198 21.21845818 -2.451848269 2.047931564e-38
-25.91493225 21.10216904 -2.450410128 2.047931564e-38
-26.10871506 21.08600044 -2.460677147 2.047931564e-38
-26.34285736 21.10066986 -2.474739075 2.047931564e-38
-26.7576828 21.08205223 -2.497758627 2.038748015e-38
-42.14144516 32.65698624 -3.909165382 1.891811221e-38
-42.41905594 32.60005951 -3.922739983 1.891811221e-38
-42.74874496 32.58094788 -3.941016912 1.891811221e-38
-55.52111816 41.26646805 -5.072236538 1.772425076e-38
-55.67479706 41.03426361 -5.071164131 1.772425076e-38
-56.14057541 40.34188843 -5.0689044 1.772425076e-38
-56.48075104 39.9017334 -5.070492268 1.772425076e-38
-56.65707016 39.68585205 -5.071958542 1.772425076e-38
-56.80114746 39.44729996 -5.070618153 1.772425076e-38
-33.21385193 22.67276764 -2.948622227 1.992830267e-38
-33.19547272 22.46511841 -2.938987017 1.992830267e-38
-33.18212891 22.0692482 -2.92200923 1.992830267e-38
-33.17421341 21.68132019 -2.905821323 2.002013816e-38
-33.19053268 21.50208092 -2.8996768 2.002013816e-38
-33.16858673 21.1111927 -2.882819891 2.002013816e-38
-33.36624908 20.86196899 -2.885281086 2.002013816e-38
-33.69036484 20.87672997 -2.906092167 2.002013816e-38
-59.21743011 35.71388245 -5.070471287 1.772425076e-38
-59.35386658 35.47156143 -5.069903851 1.772425076e-38
-59.49649048 35.23295975 -5.069945335 1.772425076e-38
-60.18437195 34.02542877 -5.069253445 1.772425076e-38
-60.34606171 33.79740143 -5.07138586 1.772425076e-38
-60.48590851 33.55704117 -5.071761608 1.772425076e-38
-60.61197281 33.30904007 -5.071063519 1.772425076e-38
-41.95130157 22.61689949 -3.494501352 1.937728969e-38
-41.94849777 22.39823151 -3.486768246 1.937728969e-38
-41.92366028 21.95363808 -3.46989274 1.937728969e-38
-41.92297745 21.73900032 -3.462589741 1.937728969e-38
-41.92211533 21.312603 -3.448271751 1.937728969e-38
-41.91281509 21.09629631 -3.440531254 1.937728969e-38
-25.65485001 12.52757931 -2.093358994 2.084665763e-38
-25.68647766 12.4154129 -2.091849089 2.084665763e-38
-25.67931747 12.28483772 -2.087235451 2.093849312e-38
-25.6491642 12.14394474 -2.080802441 2.093849312e-38
-20.96127319 9.616686821 -1.690953255 2.130583511e-38
-25.63206863 11.51104164 -2.060219526 2.093849312e-38
-25.62895012 11.38604546 -2.056275845 2.093849312e-38
-25.63475418 11.26544189 -2.053085089 2.093849312e-38
-25.6933403 11.04561043 -2.050604105 2.093849312e-38
-25.65567589 10.90741253 -2.044075489 2.093849312e-38
-25.63380432 10.77665424 -2.038882017 2.093849312e-38
-25.62690163 10.65274715 -2.034891605 2.093849312e-38
-25.6979351 10.56130123 -2.037146807 2.093849312e-38
-26.28446007 10.55615711 -2.076920271 2.093849312e-38
-26.58237839 10.55189037 -2.097116232 2.084665763e-38
-64.31707001 25.23192215 -5.065776348 1.772425076e-38
-68.53772736 25.62389374 -5.365056515 1.744874427e-38
-33.01800156 12.19321251 -2.580751657 2.029564465e-38
-32.97530746 12.02703571 -2.57360673 2.029564465e-38
-32.99622345 11.58576584 -2.564153194 2.038748015e-38
-32.96975327 11.42779541 -2.55850172 2.038748015e-38
-32.98774719 11.28569603 -2.556364536 2.038748015e-38
-32.933918 11.11960602 -2.548728704 2.038748015e-38
-32.95946884 10.98083401 -2.54726696 2.038748015e-38
-32.96158218 10.83452415 -2.544022083 2.038748015e-38
-32.98421478 10.69522953 -2.542456627 2.038748015e-38
-32.99749756 10.55314636 -2.540169954 2.038748015e-38
-32.97253418 10.39920807 -2.535010576 2.038748015e-38
-33.22279358 10.3314991 -2.550944567 2.038748015e-38
-64.18540192 19.39560509 -4.916386604 1.790792175e-38
-64.17544556 19.11141396 -4.909699917 1.790792175e-38
-41.75469589 12.06989098 -3.186886549 1.965279618e-38
-41.76852036 11.89218521 -3.184260368 1.965279618e-38
-41.74280167 11.16248608 -3.168207884 1.965279618e-38
-41.74170685 10.624506 -3.158177376 1.974463167e-38
-40.09480667 9.862775803 -3.027472734 1.983646717e-38
-40.97296906 9.730100632 -3.087772131 1.974463167e-38
-41.68597794 9.722590446 -3.138537407 1.974463167e-38
-42.38356018 9.705815315 -3.188092947 1.965279618e-38
-43.11252975 9.690490723 -3.239971638 1.965279618e-38
-43.86872864 9.675374031 -3.293850422 1.956096068e-38
-44.70433807 9.671419144 -3.353644371 1.946912519e-38
-45.51663971 9.655752182 -3.411644697 1.946912519e-38
-46.3780365 9.643836975 -3.473274946 1.937728969e-38
-47.2302742 9.62311554 -3.534174204 1.928545419e-38
-49.02648544 9.579245567 -3.662700176 1.91936187e-38
-50.92514801 9.525803566 -3.798702955 1.90099477e-38
-53.07559967 9.487067223 -3.953297377 1.882627671e-38
-54.20686722 9.46456337 -4.03469038 1.882627671e-38
-55.50093079 9.460739136 -4.128147602 1.864260572e-38
-57.94852448 9.399165154 -4.304437637 1.845893473e-38
-62.14302063 9.311802864 -4.607324123 1.818342824e-38
-65.27576447 9.245310783 -4.833925724 1.799975725e-38
-67.06280518 8.949009895 -4.960773945 1.781608625e-38
-66.84351349 8.646410942 -4.941941261 1.790792175e-38
-72.39994049 9.069361687 -5.350005627 1.744874427e-38
-72.41384125 8.775568962 -5.34838438 1.744874427e-38
-72.45529175 8.190077782 -5.346409321 1.744874427e-38
-72.52293396 7.902596951 -5.349011898 1.744874427e-38
-72.52422333 7.607870102 -5.346808434 1.744874427e-38
-72.61502075 7.027618408 -5.34916544 1.744874427e-38
-72.63573456 6.735023975 -5.348652363 1.744874427e-38
-72.65549469 6.442375183 -5.348157883 1.744874427e-38
-72.69589233 6.151515007 -5.349268436 1.744874427e-38
-72.68312836 5.85626173 -5.346551895 1.744874427e-38
-74.81066895 5.422682762 -5.499665737 1.735690877e-38
-74.83934784 4.820238113 -5.498751163 1.735690877e-38
-74.89974213 4.219778061 -5.500518799 1.735690877e-38
-70.39034271 3.681879759 -5.168225765 1.763241526e-38
-70.12973022 3.103118896 -5.147091389 1.763241526e-38
-70.09532928 2.819272518 -5.143694401 1.763241526e-38
-70.23057556 2.259325027 -5.152117729 1.763241526e-38
-70.34529114 1.980003715 -5.159909725 1.763241526e-38
-74.97452545 1.507164717 -5.498403072 1.735690877e-38
-57.24136734 -0.2301336974 -5.495497227 1.864260572e-38
-57.26924515 -0.4604735076 -5.498307705 1.864260572e-38
-57.28552246 -0.6909051538 -5.500092506 1.864260572e-38
-57.29037857 -1.151676893 -5.501269817 1.864260572e-38
-57.30970764 -1.613110781 -5.504199982 1.864260572e-38
-57.23734665 -2.071748018 -5.498665333 1.864260572e-38
-57.26596832 -2.303312302 -5.502267361 1.864260572e-38
-57.21055984 -2.531767368 -5.497889996 1.864260572e-38
-57.1623497 -2.990018368 -5.49537611 1.864260572e-38
-57.20626831 -3.222924232 -5.500799179 1.864260572e-38
-57.15996552 -3.450904608 -5.497637272 1.864260572e-38
-57.14614868 -3.680677176 -5.497685909 1.864260572e-38
-57.10486221 -4.139282227 -5.496738434 1.864260572e-38
-57.09794617 -4.369597435 -5.497718811 1.864260572e-38
-57.06494522 -4.828835011 -5.498101234 1.864260572e-38
-57.04826355 -5.058495998 -5.498402596 1.864260572e-38
-57.04975891 -5.289848328 -5.500557899 1.864260572e-38
-57.04396057 -5.520674706 -5.502089024 1.864260572e-38
-56.99938202 -5.747750759 -5.499973774 1.864260572e-38
-56.97750473 -5.977005005 -5.500142097 1.864260572e-38
-56.95621109 -6.206362247 -5.500445843 1.864260572e-38
-56.92346954 -6.666268826 -5.502281189 1.864260572e-38
-56.85294342 -6.889842033 -5.49809742 1.864260572e-38
-56.81765366 -7.117443562 -5.49740696 1.864260572e-38
-56.79504776 -7.346608639 -5.498039246 1.864260572e-38
-56.80244827 -7.579862118 -5.501654148 1.864260572e-38
-56.746418 -7.804699421 -5.499220371 1.864260572e-38
-56.72100449 -8.033653259 -5.499844074 1.864260572e-38
-56.68870926 -8.261668205 -5.499895096 1.864260572e-38
-56.55784225 -8.940416336 -5.497259617 1.864260572e-38
-56.48614502 -9.628688812 -5.501181602 1.864260572e-38
-56.41355133 -10.08370495 -5.501824379 1.864260572e-38
-54.69319534 -10.45836258 -5.345957279 1.873444122e-38
-54.62464523 -10.9012146 -5.347644806 1.873444122e-38
-54.58554459 -11.12176323 -5.348156929 1.873444122e-38
-54.44185257 -11.77801895 -5.347603798 1.873444122e-38
-54.31406403 -12.20829773 -5.344518661 1.873444122e-38
-54.3020134 -12.43513489 -5.348208904 1.873444122e-38
-54.26404572 -12.65622807 -5.349442959 1.873444122e-38
-54.03407669 -13.52222824 -5.347511292 1.873444122e-38
-54.01449585 -13.74829292 -5.351005077 1.873444122e-38
-53.8201828 -14.39211369 -5.348561287 1.873444122e-38
-53.72724533 -14.59893322 -5.345108509 1.873444122e-38
-53.71067047 -14.82654858 -5.349347591 1.873444122e-38
-53.66392517 -15.04606628 -5.35067749 1.873444122e-38
-53.60591125 -15.26250267 -5.350965977 1.873444122e-38
-53.27627945 -16.33311844 -5.349758148 1.873444122e-38
-53.09788132 -16.98157501 -5.352013111 1.873444122e-38
-53.01478958 -17.19024658 -5.350566387 1.873444122e-38
-52.89179611 -17.62154007 -5.352279663 1.873444122e-38
-52.80752945 -17.82964516 -5.350955963 1.873444122e-38
-52.73963928 -18.04320717 -5.351388454 1.873444122e-38
-52.55662918 -18.69157028 -5.355303288 1.873444122e-38
-52.49065781 -18.90615845 -5.356276035 1.873444122e-38
-52.39004898 -19.1082077 -5.353812695 1.873444122e-38
-52.31713486 -19.32020569 -5.354252815 1.873444122e-38
-52.27465057 -19.54369545 -5.357901573 1.873444122e-38
-52.17785263 -19.74695015 -5.356073856 1.873444122e-38
-52.10063171 -19.95752716 -5.356334209 1.873444122e-38
-52.03691101 -20.17336082 -5.358076572 1.873444122e-38
-51.93218994 -20.37329292 -5.355689049 1.873444122e-38
-51.84593582 -20.58032799 -5.355278015 1.873444122e-38
-51.63618088 -21.22140884 -5.359657288 1.873444122e-38
-50.98708344 -21.43542099 -5.31000042 1.873444122e-38
-51.33134079 -21.823349 -5.354951382 1.873444122e-38
-51.27469254 -22.04307556 -5.358242989 1.873444122e-38
-50.8105011 -22.3292141 -5.328317165 1.873444122e-38
-50.72092056 -22.53355408 -5.328379154 1.873444122e-38
-50.6350975 -22.73968124 -5.328928471 1.873444122e-38
-50.7207489 -23.26987457 -5.357460022 1.873444122e-38
-50.65707397 -23.48760605 -5.360656738 1.873444122e-38
-50.53899384 -23.68016243 -5.358193398 1.873444122e-38
-50.45723724 -23.88969612 -5.359669685 1.873444122e-38
-50.24891663 -24.28751755 -5.358109474 1.873444122e-38
-49.96520233 -24.89813614 -5.359488487 1.873444122e-38
-49.56263351 -24.9467659 -5.327022552 1.873444122e-38
-49.75462723 -25.29457474 -5.358535767 1.873444122e-38
-49.73053741 -25.53442383 -5.366959095 1.873444122e-38
-49.30233002 -26.32476807 -5.365738869 1.873444122e-38
-49.14878082 -26.49726486 -5.360572815 1.873444122e-38
-48.96690369 -26.90952682 -5.364165306 1.873444122e-38
-48.74998093 -27.30290413 -5.364274502 1.873444122e-38
-48.6538887 -27.50663376 -5.36582756 1.873444122e-38
-48.49184799 -27.67284584 -5.360176086 1.873444122e-38
-48.28056717 -28.06923294 -5.361600399 1.873444122e-38
-47.07894897 -27.62445831 -5.240446568 1.882627671e-38
-20.68330193 -12.36092091 -2.313282967 2.121399961e-38
-45.44678116 -27.65857315 -5.107619286 1.891811221e-38
-44.37659836 -27.2523365 -4.999609947 1.90099477e-38
-43.85403824 -27.17479324 -4.953008652 1.90099477e-38
-43.47742844 -27.18393135 -4.92277813 1.90099477e-38
-32.84746933 -20.72176743 -3.728587151 2.002013816e-38
-32.58508301 -20.73983383 -3.708237171 2.002013816e-38
-32.39418411 -20.80176353 -3.695998669 2.002013816e-38
-32.25422668 -20.89549446 -3.689589262 2.011197366e-38
-31.96880531 -21.07741165 -3.676205635 2.011197366e-38
-31.92211151 -21.41680717 -3.690513611 2.002013816e-38
-31.93087769 -21.60932922 -3.701543808 2.002013816e-38
-31.87492943 -21.94716454 -3.715389967 2.002013816e-38
-29.95896912 -20.80596161 -3.501782656 2.020380915e-38
-29.7254467 -20.82142067 -3.484246969 2.020380915e-38
-29.47833061 -20.82547188 -3.465066195 2.029564465e-38
-29.37151527 -20.92750359 -3.462366581 2.029564465e-38
-29.19875145 -20.981884 -3.451916933 2.029564465e-38
-28.92876053 -21.32154083 -3.450150728 2.029564465e-38
-28.90719986 -21.48553085 -3.457848787 2.029564465e-38
-28.82301712 -21.78486443 -3.468617678 2.029564465e-38
-28.79120445 -22.12675476 -3.48608923 2.020380915e-38
-28.81241226 -22.32787132 -3.499492884 2.020380915e-38
-28.80759621 -22.51006317 -3.509873629 2.020380915e-38
-28.79152489 -22.68449783 -3.518997908 2.020380915e-38
-28.81492233 -22.89126778 -3.533072472 2.020380915e-38
-28.79613113 -23.06575775 -3.542109013 2.020380915e-38
-28.72846985 -23.39319992 -3.556806803 2.020380915e-38
-28.72292328 -23.5813427 -3.567827225 2.020380915e-38
-28.73989296 -23.78930855 -3.581789255 2.020380915e-38
-28.72972679 -23.97618103 -3.592502594 2.011197366e-38
-42.38571167 -36.54476929 -5.372903824 1.873444122e-38
-41.92607498 -37.03927231 -5.370874405 1.873444122e-38
-41.80593109 -37.23338699 -5.374619484 1.873444122e-38
-41.65055847 -37.39638138 -5.373924255 1.873444122e-38
-41.35036087 -37.73166656 -5.374163151 1.873444122e-38
-41.07060242 -38.08605957 -5.37743187 1.873444122e-38
-40.88020706 -38.21627426 -5.372573376 1.873444122e-38
-40.7650528 -38.41689301 -5.377687454 1.873444122e-38
-40.55275345 -38.52577972 -5.370072365 1.873444122e-38
-40.13482285 -39.06032181 -5.376719952 1.873444122e-38
-39.94388962 -39.18836975 -5.372202396 1.873444122e-38
-39.81225586 -39.37456512 -5.375743389 1.873444122e-38
-39.49090576 -39.68982315 -5.375263691 1.873444122e-38
-39.3236084 -39.84073639 -5.374243736 1.873444122e-38
-39.13840485 -39.9732399 -5.370857716 1.873444122e-38
-39.02904892 -40.18341064 -5.377972126 1.873444122e-38
-38.52972794 -40.63868332 -5.376318455 1.873444122e-38
-37.87852097 -41.26077652 -5.377332211 1.873444122e-38
-37.4042511 -41.74366379 -5.381082535 1.873444122e-38
-37.19456482 -41.84692764 -5.375078678 1.873444122e-38
-37.03925705 -42.01107025 -5.376999378 1.873444122e-38
-36.72621155 -42.33736801 -5.380794525 1.873444122e-38
-29.44124794 -35.35043716 -4.416691303 1.946912519e-38
-28.9618988 -35.34900665 -4.387276173 1.946912519e-38
-28.52771187 -35.39577866 -4.364470959 1.946912519e-38
-28.38962746 -35.51571274 -4.365149498 1.946912519e-38
-28.33693504 -35.74349594 -4.37911272 1.946912519e-38
-28.29750061 -35.99000549 -4.395340919 1.946912519e-38
-28.31462669 -36.31124878 -4.420638561 1.946912519e-38
-28.27541924 -37.48879623 -4.508057594 1.937728969e-38
-28.26939201 -38.43638229 -4.580671787 1.937728969e-38
-28.21075058 -38.68144608 -4.596326828 1.928545419e-38
-28.23396301 -39.37434769 -4.651531696 1.928545419e-38
-32.48360443 -45.68749619 -5.381872177 1.873444122e-38
-31.56028748 -46.33330917 -5.382130146 1.873444122e-38
-31.37520599 -46.46190643 -5.382368565 1.873444122e-38
-31.19828987 -46.60277557 -5.384114265 1.873444122e-38
-30.82911873 -46.86195374 -5.385248661 1.873444122e-38
-30.62945938 -46.96861267 -5.383312225 1.873444122e-38
-30.25597191 -47.22134399 -5.38422966 1.873444122e-38
-30.08016777 -47.3650589 -5.38678503 1.873444122e-38
-29.68985748 -47.5916748 -5.385235786 1.873444122e-38
-29.30642319 -47.82912827 -5.385261059 1.873444122e-38
-29.12289047 -47.96129227 -5.386924267 1.873444122e-38
-28.91754341 -48.05753708 -5.384633064 1.873444122e-38
-28.74160576 -48.20274734 -5.387906075 1.873444122e-38
-28.53276634 -48.29275513 -5.38510561 1.873444122e-38
-28.33984947 -48.40953445 -5.38538599 1.873444122e-38
-28.15913582 -48.5474205 -5.388088226 1.873444122e-38
-27.96024704 -48.65412903 -5.387412548 1.873444122e-38
-27.16641617 -49.0831604 -5.385842323 1.873444122e-38
-26.97566223 -49.20435715 -5.387198448 1.873444122e-38
-26.78420639 -49.32446289 -5.388522625 1.873444122e-38
-26.38083839 -49.52705765 -5.387302399 1.873444122e-38
-25.98431587 -49.74237823 -5.387831211 1.873444122e-38
-25.7669735 -49.81326294 -5.384245872 1.873444122e-38
-25.58263969 -49.94787598 -5.387631893 1.873444122e-38
-25.38959885 -50.06605148 -5.389330387 1.873444122e-38
-24.78260803 -50.36579514 -5.38903141 1.873444122e-38
-24.16798401 -50.64964676 -5.387822151 1.873444122e-38
-23.55690765 -50.94059372 -5.388161659 1.873444122e-38
-23.36393738 -51.06119919 -5.390928745 1.873444122e-38
-23.15214539 -51.14065933 -5.389451504 1.864260572e-38
-22.13001823 -51.61987305 -5.391988277 1.864260572e-38
-21.91970825 -51.70222092 -5.391342163 1.864260572e-38
-21.71135521 -51.78918457 -5.391257286 1.864260572e-38
-21.09170914 -52.06324387 -5.392912388 1.864260572e-38
-20.86741257 -52.11053085 -5.389079571 1.864260572e-38
-20.65974617 -52.1989975 -5.389604092 1.864260572e-38
-20.24439812 -52.37633133 -5.390931606 1.864260572e-38
-20.06161308 -52.53094864 -5.398451328 1.864260572e-38
-19.87208939 -52.66889191 -5.40437603 1.864260572e-38
-19.67635918 -52.7912178 -5.408817768 1.864260572e-38
-19.02404404 -52.98498154 -5.404770374 1.864260572e-38
-18.60429573 -53.15579605 -5.406756878 1.864260572e-38
-18.3803196 -53.20075989 -5.403776169 1.864260572e-38
-17.57159424 -53.6391449 -5.418909073 1.864260572e-38
-17.55043793 -54.31168747 -5.47966671 1.864260572e-38
-17.50811577 -54.93455505 -5.535357952 1.855077022e-38
-16.90147591 -55.32858276 -5.554124832 1.855077022e-38
-16.68665314 -55.421772 -5.556708336 1.855077022e-38
-15.48776054 -52.97912979 -5.299147129 1.873444122e-38
-15.21652126 -52.83905792 -5.278975487 1.873444122e-38
-14.73274708 -52.75031662 -5.258099079 1.882627671e-38
-14.51863003 -52.80206299 -5.257404804 1.882627671e-38
-14.29772758 -52.82847977 -5.254263401 1.882627671e-38
-14.1033659 -52.9536171 -5.261033535 1.882627671e-38
-13.97660446 -53.33887482 -5.293677807 1.873444122e-38
-14.44140434 -56.03040314 -5.554994106 1.855077022e-38
-13.9920187 -56.15087891 -5.555613518 1.855077022e-38
-13.76594067 -56.20599747 -5.555524349 1.855077022e-38
-13.30972385 -56.29809189 -5.553893566 1.855077022e-38
-12.86892223 -56.45707321 -5.559184074 1.855077022e-38
-12.41688919 -56.56912613 -5.560211658 1.855077022e-38
-12.18637848 -56.60457993 -5.558838844 1.855077022e-38
-11.95393467 -56.63040543 -5.556604385 1.855077022e-38
-11.72641468 -56.67904663 -5.556708813 1.855077022e-38
-11.49869633 -56.72693253 -5.556823254 1.855077022e-38
-11.04197025 -56.81612396 -5.556688786 1.855077022e-38
-10.8110323 -56.84712982 -5.555428028 1.855077022e-38
-10.5826149 -56.89118576 -5.555530071 1.855077022e-38
-9.894917488 -57.00978088 -5.555054665 1.855077022e-38
