# .PCD v0.7 - Point Cloud Data file format
VERSION 0.7
FIELDS x y z rgb
SIZE 4 4 4 4
TYPE F F F F
COUNT 1 1 1 1
WIDTH 891
HEIGHT 1
VIEWPOINT 0 0 0 1 0 0 0
POINTS 891
DATA ascii
-8.953253746 -6.8237257 -5.521907806 2.231602557e-38
-8.789323807 -6.982453823 -5.506260872 2.231602557e-38
-8.765650749 -7.079345703 -5.526908875 2.231602557e-38
-8.717206001 -7.098308563 -5.514312267 2.231602557e-38
-8.707061768 -7.148443699 -5.526027679 2.231602557e-38
-8.685856819 -7.189686775 -5.530869961 2.231602557e-38
-8.671256065 -7.236535072 -5.540050983 2.231602557e-38
-8.621297836 -7.253838539 -5.526719093 2.231602557e-38
-8.598124504 -7.293560982 -5.530611038 2.231602557e-38
-8.586607933 -7.343368053 -5.542150497 2.231602557e-38
-8.535346985 -7.359144211 -5.528113842 2.231602557e-38
-8.469070435 -7.481940269 -5.543231487 2.231602557e-38
-8.417604446 -7.496927738 -5.529221535 2.231602557e-38
-8.362452507 -7.508321285 -5.51278162 2.231602557e-38
-8.326692581 -7.536890507 -5.50913763 2.231602557e-38
-8.308166504 -7.58110714 -5.516999245 2.231602557e-38
-8.261512756 -7.599624634 -5.506262779 2.231602557e-38
-8.238941193 -7.702054977 -5.532307625 2.231602557e-38
-8.180105209 -7.771241665 -5.534580708 2.231602557e-38
-8.132255554 -7.78821373 -5.523341179 2.231602557e-38
-8.070831299 -7.854752064 -5.524333 2.231602557e-38
-8.04387188 -7.891726494 -5.527552128 2.231602557e-38
-8.018730164 -7.930575371 -5.532137871 2.231602557e-38
-7.991968155 -7.967909813 -5.535728455 2.231602557e-38
-7.949470043 -7.989508152 -5.528490067 2.231602557e-38
-7.780525208 -8.140610695 -5.523695946 2.231602557e-38
-7.75466013 -8.179118156 -5.528629303 2.231602557e-38
-7.727648735 -8.216532707 -5.532875061 2.231602557e-38
-7.685573578 -8.237901688 -5.526416302 2.231602557e-38
-7.664671898 -8.281993866 -5.535280704 2.231602557e-38
-7.558668613 -8.367648125 -5.53120327 2.231602557e-38
-7.492482185 -8.361703873 -5.507322311 2.231602557e-38
-7.479837418 -8.415429115 -5.522852898 2.231602557e-38
-7.435120583 -8.433143616 -5.514819622 2.231602557e-38
-7.335196495 -8.594530106 -5.542504311 2.231602557e-38
-7.221433163 -8.670874596 -5.535159111 2.231602557e-38
-7.173373699 -8.683907509 -5.525033951 2.231602557e-38
-7.087866783 -8.794290543 -5.540468693 2.231602557e-38
-7.027040958 -8.790905952 -5.520495415 2.231602557e-38
-6.895262718 -8.916318893 -5.528905392 2.231602557e-38
-6.830886364 -8.981357574 -5.535001278 2.231602557e-38
-6.787844658 -8.999633789 -5.529401779 2.231602557e-38
-6.733757019 -9.002969742 -5.514776707 2.231602557e-38
-6.694303036 -9.025641441 -5.512134075 2.231602557e-38
-6.674409389 -9.074837685 -5.525749683 2.231602557e-38
-6.644383907 -9.110516548 -5.531162262 2.231602557e-38
-6.44799757 -9.225138664 -5.520944118 2.231602557e-38
-6.371045113 -9.272921562 -5.518710136 2.231602557e-38
-6.331110954 -9.294641495 -5.516438961 2.231602557e-38
-6.300684452 -9.330354691 -5.522563934 2.231602557e-38
-6.269626141 -9.365327835 -5.528299809 2.231602557e-38
-6.22186327 -9.375285149 -5.519371986 2.231602557e-38
-6.125855446 -9.476719856 -5.535188198 2.231602557e-38
-6.025583267 -9.488044739 -5.513329029 2.231602557e-38
-5.967410088 -9.56552887 -5.530295372 2.231602557e-38
-5.873258114 -9.585368156 -5.514285088 2.231602557e-38
-5.840341568 -9.618232727 -5.519639015 2.231602557e-38
-5.779839516 -9.693414688 -5.535936356 2.231602557e-38
-5.750057697 -9.73218441 -5.544836521 2.231602557e-38
-5.699210167 -9.735279083 -5.533501625 2.231602557e-38
-5.66662693 -9.769497871 -5.539952278 2.231602557e-38
-5.569241524 -9.781961441 -5.521452427 2.231602557e-38
-5.528251171 -9.801404953 -5.519837379 2.231602557e-38
-5.456594944 -9.858762741 -5.52725172 2.231602557e-38
-5.406663895 -9.861911774 -5.516789436 2.231602557e-38
-5.381599903 -9.910487175 -5.531819344 2.231602557e-38
-5.341238022 -9.93116188 -5.531321526 2.231602557e-38
-5.256967068 -9.965707779 -5.526851177 2.231602557e-38
-5.221672535 -9.995970726 -5.531946659 2.231602557e-38
-5.185642719 -10.02501011 -5.53643465 2.231602557e-38
-5.119760513 -9.995904922 -5.50895071 2.231602557e-38
-5.093164444 -10.04328728 -5.523733139 2.231602557e-38
-5.052628517 -10.0634222 -5.523593426 2.231602557e-38
-5.021368027 -10.10222244 -5.533769608 2.231602557e-38
-4.972566605 -10.10577679 -5.524721622 2.231602557e-38
-4.847414017 -10.15888977 -5.521392345 2.231602557e-38
-4.783675194 -10.23625088 -5.542357922 2.231602557e-38
-4.648481846 -10.26801777 -5.528800488 2.231602557e-38
-4.598210335 -10.26661301 -5.518044472 2.231602557e-38
-4.521141529 -10.3160696 -5.524913788 2.231602557e-38
-4.488230228 -10.35402775 -5.53553009 2.231602557e-38
-4.446060181 -10.37077045 -5.53488493 2.231602557e-38
-4.40867424 -10.39879036 -5.540332317 2.231602557e-38
-4.266745567 -10.41166019 -5.519371033 2.231602557e-38
-4.115003586 -10.52039146 -5.541213989 2.231602557e-38
-4.068830013 -10.52688789 -5.535978317 2.231602557e-38
-4.019503593 -10.52488613 -5.526379108 2.231602557e-38
-3.939370871 -10.56925678 -5.532866955 2.231602557e-38
-3.895668507 -10.58178043 -5.531188965 2.231602557e-38
-3.849398613 -10.58719158 -5.525880337 2.231602557e-38
-3.806991816 -10.6030817 -5.526137829 2.231602557e-38
-3.760490179 -10.60745621 -5.520496845 2.231602557e-38
-3.727576017 -10.65035057 -5.534982681 2.231602557e-38
-3.680515051 -10.65303802 -5.528642178 2.231602557e-38
-3.639860868 -10.67421532 -5.531993389 2.231602557e-38
-3.551673651 -10.69635105 -5.528485775 2.231602557e-38
-3.456635237 -10.69694614 -5.514253616 2.231602557e-38
-3.43287921 -10.77118015 -5.545362949 2.231602557e-38
-3.344053507 -10.79161167 -5.541861534 2.231602557e-38
-3.291840792 -10.77614307 -5.527080059 2.231602557e-38
-3.253142118 -10.80473804 -5.53498888 2.231602557e-38
-3.080439568 -10.86075401 -5.537593365 2.231602557e-38
-3.039285183 -10.88212204 -5.542210579 2.231602557e-38
-2.989632607 -10.87283897 -5.531318665 2.222419007e-38
-2.952290297 -10.90840435 -5.543328762 2.222419007e-38
-2.857163191 -10.90380478 -5.529140949 2.222419007e-38
-2.821128607 -10.9455719 -5.544523239 2.222419007e-38
-2.770463943 -10.93059635 -5.531246185 2.222419007e-38
-2.728051424 -10.94788456 -5.534405231 2.222419007e-38
-2.684280872 -10.9598074 -5.534932613 2.222419007e-38
-2.45590663 -10.97773933 -5.517941475 2.222419007e-38
-2.330348253 -11.03981113 -5.534611702 2.222419007e-38
-2.284659147 -11.04279709 -5.531463146 2.222419007e-38
-2.194537878 -11.05444431 -5.528279781 2.222419007e-38
-2.104640007 -11.06678963 -5.52581358 2.231602557e-38
-2.019532442 -11.10495663 -5.536581516 2.231602557e-38
-1.973539591 -11.10543823 -5.532824516 2.231602557e-38
-1.915874243 -11.03836536 -5.495521069 2.231602557e-38
-1.756354332 -10.89766788 -5.414541721 2.231602557e-38
-1.654452443 -10.81841469 -5.36838007 2.231602557e-38
-1.609573841 -10.81576252 -5.363808632 2.231602557e-38
-1.567263961 -10.83030701 -5.36784935 2.231602557e-38
-1.527591705 -10.86405849 -5.381494522 2.231602557e-38
-1.481862187 -10.85516071 -5.374093533 2.231602557e-38
-1.396084785 -10.87887859 -5.380095482 2.231602557e-38
-1.308712363 -10.89088821 -5.380660057 2.231602557e-38
-1.256479383 -10.82317638 -5.344676018 2.231602557e-38
-1.214357734 -10.84061146 -5.350832462 2.231602557e-38
-1.03949523 -10.85474491 -5.348854542 2.231602557e-38
-0.9553688169 -10.89893818 -5.366682053 2.231602557e-38
-0.8661801815 -10.88700771 -5.357200146 2.231602557e-38
-0.8216633797 -10.88038254 -5.352278709 2.231602557e-38
-0.7766904831 -10.86663055 -5.34392643 2.231602557e-38
-0.6019283533 -10.87888336 -5.344504356 2.231602557e-38
-0.5581558347 -10.88028336 -5.344053268 2.231602557e-38
-0.4715390801 -10.90467167 -5.353997231 2.231602557e-38
-0.3837748468 -10.90601349 -5.352966309 2.231602557e-38
-0.3400317132 -10.91090488 -5.354651451 2.231602557e-38
-0.2965115309 -10.92467594 -5.360775948 2.231602557e-38
-0.2085219473 -10.91925049 -5.357118607 2.231602557e-38
-0.1646090895 -10.91882133 -5.356546402 2.231602557e-38
-0.1204599887 -10.89584064 -5.344993114 2.231602557e-38
-0.07693344355 -10.93541527 -5.364210129 2.231602557e-38
0.05472080782 -10.88832378 -5.341037273 2.231602557e-38
0.09861185402 -10.90095806 -5.34738636 2.231602557e-38
0.1863313764 -10.90471172 -5.349796295 2.231602557e-38
0.2303823233 -10.91427803 -5.354897499 2.231602557e-38
0.274217099 -10.91192532 -5.354241848 2.231602557e-38
0.317386359 -10.88692951 -5.342563629 2.231602557e-38
0.4055064023 -10.90015602 -5.350480556 2.231602557e-38
0.4920015335 -10.87157726 -5.338218212 2.231602557e-38
0.5356923342 -10.86937237 -5.338150501 2.231602557e-38
0.6223761439 -10.85266113 -5.332231998 2.231602557e-38
0.7116603851 -10.87865257 -5.34763813 2.231602557e-38
0.8006663322 -10.89392757 -5.358137131 2.231602557e-38
0.8872417808 -10.87513065 -5.352227688 2.231602557e-38
0.9285236001 -10.84306622 -5.338241577 2.231602557e-38
1.061814785 -10.85764217 -5.351332664 2.231602557e-38
1.105104208 -10.84985733 -5.349640846 2.231602557e-38
1.14605844 -10.8202095 -5.337248325 2.231602557e-38
1.191431403 -10.8327179 -5.345741272 2.231602557e-38
1.236893296 -10.84472275 -5.354072571 2.231602557e-38
1.412573457 -10.83470154 -5.359652519 2.231602557e-38
1.455585837 -10.82497501 -5.357689381 2.231602557e-38
1.497448564 -10.80717468 -5.351818085 2.231602557e-38
1.587121844 -10.81407452 -5.361381054 2.231602557e-38
1.627015591 -10.783988 -5.349663734 2.231602557e-38
1.718384743 -10.80024147 -5.364405632 2.231602557e-38
1.75804162 -10.77028751 -5.352995872 2.231602557e-38
1.799575806 -10.75266361 -5.347786903 2.231602557e-38
1.849021435 -10.78171921 -5.365893841 2.231602557e-38
1.974093437 -10.73244095 -5.352824688 2.231602557e-38
2.017962694 -10.72839451 -5.354812145 2.231602557e-38
2.055989504 -10.69374275 -5.341599941 2.231602557e-38
2.144385815 -10.68929005 -5.34781456 2.231602557e-38
2.182782412 -10.65830326 -5.336661339 2.231602557e-38
2.233347654 -10.68646336 -5.35520792 2.231602557e-38
2.275321722 -10.67284489 -5.352924824 2.231602557e-38
2.317762613 -10.66157818 -5.351903915 2.231602557e-38
2.404912472 -10.64925766 -5.355250359 2.231602557e-38
2.486317158 -10.61195278 -5.346369267 2.231602557e-38
2.526285648 -10.59066105 -5.3407197 2.231602557e-38
2.576210737 -10.61079407 -5.356048584 2.231602557e-38
2.611485243 -10.57055569 -5.340994835 2.231602557e-38
2.65745163 -10.57387829 -5.348027706 2.231602557e-38
2.736980915 -10.53141499 -5.337507725 2.231602557e-38
2.868897438 -10.51637936 -5.347038269 2.231602557e-38
2.907038927 -10.48992825 -5.339488506 2.231602557e-38
2.958991766 -10.51299477 -5.35723877 2.231602557e-38
2.986819029 -10.45061207 -5.331528187 2.231602557e-38
3.038551569 -10.4720993 -5.348679066 2.231602557e-38
3.131428957 -10.47670937 -5.363717556 2.231602557e-38
3.249123335 -10.41117859 -5.349838257 2.231602557e-38
3.33660841 -10.39685249 -5.356089592 2.231602557e-38
3.36938405 -10.35572052 -5.341832638 2.231602557e-38
3.494724989 -10.31639862 -5.342900753 2.231602557e-38
3.551450968 -10.34679317 -5.365992546 2.231602557e-38
3.617697954 -10.27013874 -5.341152191 2.231602557e-38
3.705248117 -10.25483036 -5.34851408 2.231602557e-38
3.750546932 -10.25106907 -5.354374409 2.231602557e-38
3.787676334 -10.22500038 -5.348659992 2.231602557e-38
3.821070194 -10.18920422 -5.337931633 2.231602557e-38
3.87208581 -10.20031643 -5.351867199 2.231602557e-38
3.990317106 -10.14146709 -5.345845699 2.231602557e-38
4.033136368 -10.13057518 -5.348608494 2.231602557e-38
4.069067001 -10.10245037 -5.342354774 2.231602557e-38
4.107026577 -10.07958794 -5.33894968 2.231602557e-38
4.1555233 -10.08242702 -5.349264145 2.231602557e-38
4.208787441 -10.0962801 -5.365542889 2.231602557e-38
4.241161823 -10.05987644 -5.355214119 2.231602557e-38
4.279698372 -10.03836441 -5.352879524 2.231602557e-38
4.360350132 -10.00381947 -5.352977276 2.231602557e-38
4.404569626 -9.995393753 -5.357901096 2.231602557e-38
4.598665714 -9.89213562 -5.351021767 2.231602557e-38
4.626746655 -9.848885536 -5.337645054 2.231602557e-38
4.667417526 -9.832443237 -5.338860035 2.231602557e-38
4.727236748 -9.856046677 -5.361950397 2.231602557e-38
4.816372395 -9.738857269 -5.329408646 2.231602557e-38
4.881622314 -9.771752357 -5.358106136 2.231602557e-38
4.946057796 -9.704792023 -5.343019962 2.231602557e-38
5.006486893 -9.72649765 -5.366014004 2.231602557e-38
5.090191364 -9.696685791 -5.371964455 2.231602557e-38
5.135802746 -9.688692093 -5.378931999 2.231602557e-38
5.240801334 -9.697602272 -5.407097816 2.231602557e-38
5.498106956 -9.702327728 -5.470253944 2.231602557e-38
5.533782959 -9.674401283 -5.46700716 2.231602557e-38
5.63990593 -9.6785326 -5.494790077 2.231602557e-38
5.679651737 -9.657282829 -5.49564743 2.231602557e-38
5.736315727 -9.664514542 -5.512835979 2.231602557e-38
5.761004448 -9.617819786 -5.499364853 2.231602557e-38
5.879320621 -9.55209446 -5.501932144 2.231602557e-38
5.910806656 -9.517339706 -5.495554447 2.231602557e-38
5.9516325 -9.497673988 -5.497969627 2.231602557e-38
6.001507759 -9.492238045 -5.508743286 2.231602557e-38
6.099232197 -9.394053459 -5.49405241 2.231602557e-38
6.176881313 -9.348220825 -5.496117592 2.231602557e-38
6.204038143 -9.307749748 -5.486941814 2.231602557e-38
6.257626057 -9.306868553 -5.501205444 2.231602557e-38
6.380806923 -9.247244835 -5.511054516 2.231602557e-38
6.398281097 -9.193288803 -5.494180202 2.231602557e-38
6.440937519 -9.175690651 -5.499091148 2.231602557e-38
6.493966579 -9.172602654 -5.51283884 2.231602557e-38
6.539147377 -9.158129692 -5.519897461 2.231602557e-38
6.535929203 -9.07625103 -5.486338615 2.231602557e-38
6.625604153 -9.046502113 -5.500376225 2.231602557e-38
6.662138462 -9.020104408 -5.500564098 2.231602557e-38
6.736063004 -8.968360901 -5.501861095 2.231602557e-38
6.761882782 -8.927819252 -5.493619442 2.231602557e-38
6.882810116 -8.863295555 -5.504594803 2.231602557e-38
6.94987011 -8.802657127 -5.501459122 2.231602557e-38
6.990548611 -8.781386375 -5.505685329 2.231602557e-38
7.016866684 -8.741908073 -5.498568058 2.231602557e-38
7.030385971 -8.687163353 -5.481870174 2.231602557e-38
7.095266342 -8.69593811 -5.505366802 2.231602557e-38
7.119366169 -8.653888702 -5.496819019 2.231602557e-38
7.216532707 -8.559488297 -5.49173975 2.231602557e-38
7.262749195 -8.544368744 -5.500725269 2.231602557e-38
7.281781197 -8.49730587 -5.489225864 2.231602557e-38
7.390025616 -8.416041374 -5.493909836 2.231602557e-38
7.450595856 -8.41653347 -5.513738632 2.231602557e-38
7.475842953 -8.376955032 -5.507452488 2.231602557e-38
7.490747452 -8.326034546 -5.493730068 2.231602557e-38
7.548507214 -8.255773544 -5.487233639 2.231602557e-38
7.694389343 -8.214170456 -5.520863056 2.231602557e-38
7.710049629 -8.164872169 -5.508511543 2.231602557e-38
7.732540607 -8.123005867 -5.501199722 2.231602557e-38
7.812773705 -8.076282501 -5.511912346 2.231602557e-38
7.82676506 -8.025927544 -5.498976231 2.231602557e-38
7.904142857 -7.975971699 -5.508110046 2.231602557e-38
7.951958656 -7.959964752 -5.519086838 2.231602557e-38
7.966907978 -7.911067009 -5.507344246 2.231602557e-38
8.012660027 -7.829541683 -5.495271206 2.231602557e-38
8.043343544 -7.796574116 -5.494781017 2.231602557e-38
8.074426651 -7.763997078 -5.494646072 2.231602557e-38
8.102107048 -7.728164196 -5.492296696 2.231602557e-38
8.15646553 -7.71763134 -5.508067608 2.231602557e-38
8.174546242 -7.672705173 -5.499408722 2.231602557e-38
8.2076931 -7.641984463 -5.500996113 2.231602557e-38
8.236787796 -7.607491493 -5.499951839 2.231602557e-38
8.253740311 -7.56188488 -5.490930557 2.231602557e-38
8.293745995 -7.53744173 -5.497347355 2.231602557e-38
8.324072838 -7.504122734 -5.497404575 2.231602557e-38
8.385455132 -7.438134193 -5.498270512 2.231602557e-38
8.453111649 -7.377570629 -5.503564358 2.231602557e-38
8.556413651 -7.228664398 -5.494423389 2.231602557e-38
8.619814873 -7.16425848 -5.497969627 2.231602557e-38
8.706916809 -7.060868263 -5.498813152 2.231602557e-38
8.729854584 -7.021486282 -5.495427132 2.231602557e-38
8.865760803 -6.89898777 -5.510427952 2.231602557e-38
8.919575691 -6.769762039 -5.492731571 2.231602557e-38
8.95298481 -6.738568306 -5.496578217 2.231602557e-38
8.982381821 -6.704298973 -5.498035908 2.231602557e-38
9.022814751 -6.678170204 -5.506309986 2.231602557e-38
9.061130524 -6.594430447 -5.49715662 2.231602557e-38
9.13066864 -6.533408165 -5.507297516 2.231602557e-38
9.178194046 -6.456463337 -5.504474163 2.231602557e-38
9.231108665 -6.38337326 -5.505250931 2.231602557e-38
9.251362801 -6.288045406 -5.487003326 2.231602557e-38
9.288179398 -6.258624077 -5.493871689 2.231602557e-38
9.320547104 -6.226094723 -5.498168468 2.231602557e-38
9.332184792 -6.179766655 -5.490335941 2.231602557e-38
9.408439636 -6.122020721 -5.506063938 2.231602557e-38
9.408478737 -6.068364143 -5.491767883 2.231602557e-38
9.446351051 -6.039150715 -5.499658108 2.231602557e-38
9.507217407 -6.024358273 -5.520949364 2.231602557e-38
9.586322784 -5.860602379 -5.511445045 2.231602557e-38
9.551083565 -5.786448479 -5.477764606 2.231602557e-38
9.615645409 -5.720378876 -5.488240242 2.231602557e-38
9.648706436 -5.687665462 -5.494014263 2.231602557e-38
9.741987228 -5.533535957 -5.495752811 2.231602557e-38
9.784171104 -5.505587101 -5.507014751 2.231602557e-38
9.810360909 -5.416938782 -5.497062683 2.231602557e-38
9.835262299 -5.37921524 -5.498858452 2.231602557e-38
9.839265823 -5.330129147 -5.489070415 2.231602557e-38
9.908164978 -5.264869213 -5.503721714 2.231602557e-38
9.96294117 -5.140873432 -5.499304771 2.231602557e-38
10.00193596 -5.110183716 -5.509442329 2.231602557e-38
10.03739929 -5.077517509 -5.517688274 2.231602557e-38
10.0164814 -5.016468048 -5.495061398 2.231602557e-38
10.05765343 -4.986618042 -5.506607056 2.231602557e-38
10.07263947 -4.943694592 -5.503884792 2.231602557e-38
10.12963486 -4.820970058 -5.502857685 2.231602557e-38
10.17015553 -4.790205479 -5.514368057 2.231602557e-38
10.16147709 -4.736298084 -5.499296188 2.231602557e-38
10.17364979 -4.692285061 -5.495631218 2.231602557e-38
10.20479012 -4.656987667 -5.502290726 2.231602557e-38
10.20997334 -4.609852314 -5.495051861 2.231602557e-38
10.25138378 -4.579030514 -5.507384777 2.231602557e-38
10.25311279 -4.481274128 -5.488780022 2.231602557e-38
10.2790575 -4.443480492 -5.493062973 2.231602557e-38
10.28119659 -4.395440102 -5.48472023 2.231602557e-38
10.35602379 -4.378270626 -5.515203476 2.231602557e-38
10.33756161 -4.321571827 -5.496075153 2.231602557e-38
10.37309742 -4.287520409 -5.505757332 2.231602557e-38
10.38427067 -4.243346691 -5.502592087 2.231602557e-38
10.39127922 -4.197542667 -5.497318745 2.231602557e-38
10.44440651 -4.170241833 -5.516512871 2.231602557e-38
10.50148106 -3.998487949 -5.511983871 2.231602557e-38
10.48357773 -3.943479776 -5.494222164 2.231602557e-38
10.50888062 -3.904850006 -5.499211311 2.231602557e-38
10.51943302 -3.860723972 -5.496568203 2.231602557e-38
10.58033276 -3.738923788 -5.504425526 2.231602557e-38
10.59949398 -3.602496147 -5.491390228 2.231602557e-38
10.61751842 -3.561075687 -5.49326849 2.231602557e-38
10.6522398 -3.477694273 -5.496587753 2.231602557e-38
10.67474747 -3.437623501 -5.501026154 2.231602557e-38
10.66727161 -3.387950182 -5.490110874 2.231602557e-38
10.70135593 -3.351476192 -5.500675678 2.231602557e-38
10.69699287 -3.25592041 -5.484803677 2.231602557e-38
10.74752808 -3.224137783 -5.504021645 2.231602557e-38
10.79903793 -3.098149538 -5.510865211 2.231602557e-38
10.79896259 -3.051198721 -5.504523754 2.231602557e-38
10.81192017 -3.007971048 -5.504919052 2.231602557e-38
10.78949833 -2.955055952 -5.487410069 2.231602557e-38
10.80740356 -2.913317204 -5.490516186 2.231602557e-38
10.82358932 -2.871053457 -5.492832661 2.231602557e-38
10.83670235 -2.827943087 -5.49367094 2.231602557e-38
10.84879589 -2.784580231 -5.494084835 2.231602557e-38
10.86865711 -2.743155003 -5.498513699 2.231602557e-38
10.90086174 -2.704703569 -5.509263039 2.231602557e-38
10.88720798 -2.654909372 -5.496921539 2.231602557e-38
10.90241337 -2.612223625 -5.499253273 2.231602557e-38
10.91057587 -2.521614552 -5.492965698 2.231602557e-38
10.94702911 -2.437488556 -5.501275063 2.231602557e-38
10.93412018 -2.388523102 -5.489917278 2.231602557e-38
10.96495056 -2.349108458 -5.500610828 2.231602557e-38
10.98274517 -2.306784153 -5.504839897 2.231602557e-38
11.01518345 -2.267411709 -5.516488075 2.231602557e-38
11.04397488 -2.042869329 -5.509225845 2.231602557e-38
11.0077219 -1.990430593 -5.487107277 2.231602557e-38
11.03888321 -1.904545069 -5.494827271 2.231602557e-38
11.04776001 -1.860374212 -5.495480537 2.231602557e-38
11.05439091 -1.815827847 -5.495102406 2.231602557e-38
11.04381943 -1.768522501 -5.486267567 2.231602557e-38
11.10154057 -1.686336398 -5.508033276 2.231602557e-38
11.08517647 -1.592777848 -5.49338007 2.231602557e-38
11.08851719 -1.547792315 -5.491906643 2.231602557e-38
11.11250687 -1.505624294 -5.500747204 2.231602557e-38
11.09090614 -1.457318306 -5.487108707 2.231602557e-38
11.10935593 -1.41433084 -5.49338007 2.231602557e-38
11.14139938 -1.327481985 -5.503771782 2.231602557e-38
11.17482662 -1.240415454 -5.51517725 2.231602557e-38
11.15119648 -1.192446709 -5.501105785 2.231602557e-38
11.17276382 -1.10397017 -5.50718832 2.231602557e-38
11.18526363 -0.878605783 -5.503531933 2.231602557e-38
11.17361164 -0.8325060606 -5.496107578 2.231602557e-38
11.15877628 -0.7863118052 -5.487210274 2.231602557e-38
11.19057941 -0.7433544397 -5.501336575 2.231602557e-38
11.19596004 -0.6985179782 -5.502557278 2.231602557e-38
11.18553925 -0.6076344252 -5.494857311 2.231602557e-38
11.18790817 -0.5626674294 -5.494864464 2.231602557e-38
11.22426796 -0.5192715526 -5.511651993 2.231602557e-38
11.21100044 -0.4734924436 -5.50415802 2.231602557e-38
11.17662144 -0.4270365238 -5.486392021 2.231602557e-38
11.23660278 -0.2936787605 -5.513697147 2.231602557e-38
11.18091297 -0.2472523004 -5.48583746 2.231602557e-38
11.193717 -0.1575050205 -5.491322994 2.231602557e-38
11.21441364 -0.06762985885 -5.501030922 2.231602557e-38
11.23805714 -0.02259534597 -5.51254034 2.231602557e-38
11.19228458 0.0224886816 -5.490084648 2.231602557e-38
11.239645 0.06776246428 -5.513409138 2.231602557e-38
11.23443317 0.1128968298 -5.511028767 2.231602557e-38
11.19993782 0.1575827897 -5.494373798 2.231602557e-38
11.25085163 0.2035490274 -5.51970768 2.231602557e-38
11.2484951 0.2487272173 -5.518996716 2.231602557e-38
11.20780468 0.2929162681 -5.499564648 2.231602557e-38
11.20717525 0.3379906714 -5.499880314 2.231602557e-38
11.19908333 0.3828114271 -5.496619225 2.231602557e-38
11.19727325 0.4729029834 -5.497419357 2.231602557e-38
11.20873737 0.5185385346 -5.50402689 2.231602557e-38
11.20706177 0.6992005706 -5.508011341 2.231602557e-38
11.182374 0.7427994013 -5.497301102 2.231602557e-38
11.1628294 0.7865929008 -5.489205837 2.231602557e-38
11.17490578 0.8325876594 -5.496742725 2.231602557e-38
11.17492008 0.8777832985 -5.498441219 2.231602557e-38
11.1886158 0.9241326451 -5.506964684 2.231602557e-38
11.18397427 0.9690343738 -5.50655508 2.231602557e-38
11.18475628 1.014417052 -5.508899689 2.231602557e-38
11.14458466 1.055961251 -5.49116087 2.231602557e-38
11.13559246 1.145505309 -5.491093636 2.231602557e-38
11.1411829 1.191365838 -5.496164799 2.231602557e-38
11.16260147 1.239058375 -5.509143829 2.231602557e-38
11.1678915 1.285120726 -5.514262676 2.231602557e-38
11.1579113 1.374941587 -5.514610767 2.231602557e-38
11.0953455 1.503289938 -5.492254257 2.231602557e-38
11.11403275 1.642543674 -5.510909557 2.231602557e-38
11.05838108 1.679775357 -5.486618996 2.231602557e-38
11.08236217 1.72901988 -5.501915932 2.231602557e-38
11.0410862 1.768070221 -5.484909534 2.231602557e-38
11.06310749 1.862943292 -5.503112793 2.231602557e-38
11.03628349 1.995589256 -5.50134182 2.231602557e-38
11.02650833 2.085514307 -5.504656792 2.231602557e-38
11.02415085 2.17700243 -5.512030602 2.231602557e-38
10.95772743 2.301525593 -5.492302895 2.231602557e-38
10.93289661 2.434332132 -5.49417305 2.231602557e-38
10.96034718 2.486739159 -5.512948513 2.231602557e-38
10.93826389 2.57435894 -5.512072563 2.231602557e-38
10.90520477 2.612897396 -5.500662327 2.231602557e-38
10.88062191 2.746165037 -5.504567146 2.231602557e-38
10.84208488 2.78284812 -5.490686893 2.231602557e-38
10.8288908 2.919099569 -5.501432419 2.231602557e-38
10.81513786 3.00886631 -5.506557465 2.231602557e-38
10.75224686 3.178493261 -5.499851704 2.231602557e-38
10.73867798 3.221478701 -5.499490738 2.231602557e-38
10.71644115 3.308947802 -5.50154686 2.231602557e-38
10.7276268 3.359699011 -5.514179707 2.231602557e-38
10.67311001 3.389795303 -5.493116379 2.231602557e-38
10.70747757 3.448159695 -5.517894268 2.231602557e-38
10.63433838 3.471850157 -5.487350464 2.231602557e-38
10.60306644 3.50887394 -5.478450775 2.231602557e-38
10.64006424 3.568637848 -5.504933834 2.231602557e-38
10.63449574 3.614394188 -5.509526253 2.231602557e-38
10.5795269 3.643217802 -5.488591194 2.231602557e-38
10.60685444 3.700390816 -5.51044178 2.231602557e-38
10.57274055 3.736232281 -5.500477314 2.231602557e-38
10.5451355 3.822119713 -5.501926899 2.231602557e-38
10.50771809 3.856414795 -5.490447044 2.231602557e-38
10.52705097 3.91159606 -5.508718491 2.231602557e-38
10.48033619 3.942259789 -5.49252224 2.231602557e-38
10.43877792 3.974593878 -5.479072094 2.231602557e-38
10.47838879 4.037988663 -5.508339882 2.231602557e-38
10.45384407 4.076864719 -5.504007339 2.231602557e-38
10.42323208 4.113279343 -5.496552467 2.231602557e-38
10.40845394 4.155881882 -5.497523785 2.231602557e-38
10.3715477 4.238132954 -5.495850086 2.231602557e-38
10.34853554 4.277360439 -5.492722988 2.231602557e-38
10.30686092 4.308729172 -5.479754448 2.231602557e-38
10.29675102 4.402079582 -5.49301672 2.231602557e-38
10.27616596 4.54062748 -5.510848045 2.231602557e-38
10.22591591 4.56764555 -5.493703365 2.231602557e-38
10.21590519 4.612520218 -5.498243332 2.231602557e-38
10.17854595 4.645008564 -5.488142967 2.231602557e-38
10.16613197 4.688804626 -5.491566181 2.231602557e-38
10.12898445 4.770800114 -5.492040157 2.231602557e-38
10.09991932 4.806819439 -5.48671627 2.231602557e-38
10.08077621 4.847506046 -5.486858845 2.231602557e-38
10.10156345 4.907596111 -5.50886631 2.231602557e-38
10.05866146 4.936823845 -5.496246815 2.231602557e-38
10.04384518 4.979759216 -5.499044418 2.231602557e-38
10.01736832 5.016906261 -5.495546341 2.231602557e-38
9.9127388 5.216285706 -5.494565487 2.231602557e-38
9.901366234 5.261260033 -5.499964237 2.231602557e-38
9.810825348 5.365850449 -5.485206604 2.231602557e-38
9.789110184 5.456663132 -5.497406006 2.231602557e-38
9.740596771 5.532720566 -5.494962692 2.231602557e-38
9.73911953 5.58379221 -5.50674963 2.231602557e-38
9.70121479 5.613999367 -5.498034954 2.231602557e-38
9.65454483 5.638924599 -5.484388828 2.231602557e-38
9.634723663 5.731728554 -5.499129295 2.231602557e-38
9.620130539 5.775531292 -5.504005432 2.231602557e-38
9.600986481 5.816673279 -5.506386757 2.231602557e-38
9.555033684 5.947526455 -5.520769596 2.231602557e-38
9.517406464 5.977327824 -5.512869835 2.231602557e-38
9.462324142 5.995903015 -5.494876385 2.231602557e-38
9.438156128 6.033896923 -5.494886875 2.231602557e-38
9.398311615 6.115414619 -5.500126839 2.231602557e-38
9.383728027 6.159762859 -5.506038189 2.231602557e-38
9.300242424 6.212525845 -5.486191273 2.231602557e-38
9.243528366 6.228533745 -5.467465401 2.231602557e-38
9.077976227 6.223685741 -5.398964882 2.231602557e-38
8.966217041 6.253615379 -5.362223625 2.231602557e-38
8.91531086 6.271536827 -5.34681654 2.231602557e-38
8.880058289 6.354065418 -5.356139183 2.231602557e-38
8.823166847 6.421244144 -5.352790833 2.231602557e-38
8.788581848 6.45027256 -5.347494602 2.231602557e-38
8.760414124 6.483939648 -5.34617281 2.231602557e-38
8.688745499 6.594556332 -5.350583553 2.231602557e-38
8.671502113 6.636585236 -5.35635376 2.231602557e-38
8.471663475 6.813807487 -5.332899094 2.231602557e-38
8.463533401 6.863493919 -5.345105171 2.231602557e-38
8.430481911 6.893045425 -5.341689587 2.231602557e-38
8.355286598 6.944392204 -5.329246521 2.231602557e-38
8.354898453 7.001050949 -5.346910477 2.231602557e-38
8.340325356 7.046099186 -5.355666161 2.231602557e-38
8.259432793 7.092344284 -5.340167046 2.231602557e-38
8.193071365 7.150596619 -5.33425808 2.231602557e-38
8.067284584 7.272627831 -5.327819824 2.231602557e-38
8.09109211 7.353257656 -5.363019466 2.231602557e-38
8.027947426 7.355017662 -5.340722561 2.231602557e-38
8.026785851 7.413523674 -5.359731674 2.231602557e-38
7.983622074 7.433354855 -5.350820065 2.231602557e-38
7.95680809 7.468318462 -5.352924824 2.231602557e-38
7.929633617 7.503003597 -5.354893208 2.231602557e-38
7.899899483 7.53528738 -5.35522747 2.231602557e-38
7.852234364 7.550338745 -5.343447208 2.231602557e-38
7.784998417 7.607087135 -5.339138031 2.231602557e-38
7.745083809 7.69077301 -5.353998661 2.231602557e-38
7.715916634 7.723659039 -5.355257511 2.231602557e-38
7.639451981 7.708848 -5.32364893 2.231602557e-38
7.585316658 7.841145515 -5.351442337 2.231602557e-38
7.53572464 7.852802753 -5.338680744 2.231602557e-38
7.419837475 7.985174179 -5.346862793 2.231602557e-38
7.383127689 8.009996414 -5.343567848 2.231602557e-38
7.308815002 8.05842495 -5.336502552 2.231602557e-38
7.2885499 8.101295471 -5.345443726 2.231602557e-38
7.255956173 8.130558014 -5.345466137 2.231602557e-38
7.201142788 8.134725571 -5.32913065 2.231602557e-38
7.20174408 8.201601982 -5.353933811 2.231602557e-38
7.074182034 8.322517395 -5.357904911 2.231602557e-38
7.010681152 8.383467674 -5.360688686 2.231602557e-38
6.95654583 8.387022972 -5.345034599 2.231602557e-38
6.938361645 8.433872223 -5.357069492 2.231602557e-38
6.899847031 8.456113815 -5.353534222 2.231602557e-38
6.865613937 8.483557701 -5.353390694 2.231602557e-38
6.830410004 8.50977993 -5.352571487 2.231602557e-38
6.7698493 8.504136086 -5.331859589 2.231602557e-38
6.704462051 8.562379837 -5.334410191 2.231602557e-38
6.672329903 8.592281342 -5.336282253 2.231602557e-38
6.590741634 8.701858521 -5.354577065 2.231602557e-38
6.572527409 8.75067234 -5.368313313 2.231602557e-38
6.54156065 8.782746315 -5.371814728 2.231602557e-38
6.485866547 8.781432152 -5.355023384 2.231602557e-38
6.405934811 8.8207407 -5.34741354 2.231602557e-38
6.385559082 8.867440224 -5.360118389 2.231602557e-38
6.335225582 8.872526169 -5.347757339 2.231602557e-38
6.2409482 8.890780449 -5.328343868 2.231602557e-38
6.234436512 8.957870483 -5.353487492 2.231602557e-38
5.899422169 8.549580574 -5.095255375 2.231602557e-38
6.175024986 9.026425362 -5.364613056 2.231602557e-38
6.111524582 9.011129379 -5.340875149 2.231602557e-38
6.074478149 9.034472466 -5.340196609 2.231602557e-38
5.949166298 9.162909508 -5.358873367 2.231602557e-38
5.479543686 8.514354706 -4.966645718 2.240786106e-38
5.868333817 9.199515343 -5.352514267 2.231602557e-38
5.802811146 9.2601614 -5.360486031 2.231602557e-38
5.747617722 9.254573822 -5.343828678 2.231602557e-38
5.657828808 9.275569916 -5.32951355 2.231602557e-38
5.651060104 9.348809242 -5.358500481 2.231602557e-38
5.621564865 9.385014534 -5.366254807 2.231602557e-38
5.566931248 9.379132271 -5.350053787 2.231602557e-38
5.505036354 9.447088242 -5.363393784 2.231602557e-38
5.36653471 9.470128059 -5.339343548 2.231602557e-38
5.300216198 9.530938148 -5.3494277 2.231602557e-38
5.283168316 9.590856552 -5.371092796 2.231602557e-38
5.225937843 9.577861786 -5.35200882 2.231602557e-38
5.147913456 9.617983818 -5.351128101 2.231602557e-38
5.105283737 9.631193161 -5.34701395 2.231602557e-38
5.068509102 9.655417442 -5.349109173 2.231602557e-38
5.015121937 9.647758484 -5.333653927 2.231602557e-38
4.988084316 9.690755844 -5.346292973 2.231602557e-38
4.87334919 9.755186081 -5.349026203 2.231602557e-38
4.794987679 9.794506073 -5.349276543 2.231602557e-38
4.755273819 9.813092232 -5.34894371 2.231602557e-38
4.713977337 9.828352928 -5.346888065 2.231602557e-38
4.672642231 9.843456268 -5.344841957 2.231602557e-38
3.905186892 8.580190659 -4.624211788 2.249969656e-38
3.857990503 8.567678452 -4.609074116 2.249969656e-38
4.388863087 9.959736824 -5.33878994 2.231602557e-38
3.729217768 8.555837631 -4.578174591 2.249969656e-38
3.686242342 8.550914764 -4.567576408 2.249969656e-38
3.65125823 8.564311981 -4.566854 2.249969656e-38
3.529337406 8.563141823 -4.543202877 2.249969656e-38
3.502775669 8.596604347 -4.553449631 2.249969656e-38
3.475399971 8.628540993 -4.562925339 2.249969656e-38
3.918706417 10.19937897 -5.359595776 2.231602557e-38
3.87770772 10.21513557 -5.359642982 2.231602557e-38
3.792761803 10.23872185 -5.355843067 2.231602557e-38
3.705894232 10.25662041 -5.349447727 2.231602557e-38
3.585297108 10.31022549 -5.354465485 2.231602557e-38
3.537026405 10.30476379 -5.344201565 2.231602557e-38
3.499078512 10.32924652 -5.34955883 2.231602557e-38
3.461315632 10.35457039 -5.35542345 2.231602557e-38
3.289046526 10.39205265 -5.346762657 2.231602557e-38
3.202907324 10.4100666 -5.342612743 2.231602557e-38
3.170081615 10.45270729 -5.357910156 2.231602557e-38
3.128503323 10.46692085 -5.358705044 2.231602557e-38
3.08473897 10.47375584 -5.355814457 2.231602557e-38
2.991233349 10.46604347 -5.339396954 2.231602557e-38
2.910213709 10.50138378 -5.345318317 2.231602557e-38
2.744209528 10.55920982 -5.351601124 2.231602557e-38
2.62122941 10.61000156 -5.360929012 2.231602557e-38
2.570095301 10.58560562 -5.343340397 2.231602557e-38
2.532450914 10.61650944 -5.353758812 2.231602557e-38
2.40591073 10.6537199 -5.357495308 2.231602557e-38
2.362869024 10.66239929 -5.35704422 2.231602557e-38
2.321250677 10.67762661 -5.35996294 2.231602557e-38
2.277312279 10.68220329 -5.357619762 2.231602557e-38
2.101508379 10.69834995 -5.348075867 2.231602557e-38
2.021818399 10.74889374 -5.365044594 2.231602557e-38
1.969813466 10.70918274 -5.341230392 2.231602557e-38
1.885755777 10.73667049 -5.347204685 2.231602557e-38
1.847059727 10.7702837 -5.360203743 2.231602557e-38
1.757941246 10.76965714 -5.352686405 2.231602557e-38
1.716381073 10.78761196 -5.358136654 2.231602557e-38
1.671953917 10.78774452 -5.354820251 2.231602557e-38
1.631517053 10.81383038 -5.364470005 2.231602557e-38
1.581826687 10.77800751 -5.343503475 2.231602557e-38
1.54414916 10.82399464 -5.363179207 2.231602557e-38
1.501271248 10.83475876 -5.365479469 2.231602557e-38
1.363795757 10.79903984 -5.339256763 2.231602557e-38
1.327142477 10.85981274 -5.366623878 2.231602557e-38
1.280296087 10.83813477 -5.353322983 2.231602557e-38
1.234924555 10.82744884 -5.345551968 2.231602557e-38
1.188396454 10.80511284 -5.332120895 2.231602557e-38
1.146557331 10.82503128 -5.339630604 2.231602557e-38
1.107572436 10.87412453 -5.361608028 2.231602557e-38
1.062532425 10.86497879 -5.354950428 2.231602557e-38
1.022488117 10.90808678 -5.374127388 2.231602557e-38
0.9770364165 10.89427185 -5.365344524 2.231602557e-38
0.9301137924 10.86167049 -5.347402573 2.231602557e-38
0.8861266375 10.86139774 -5.345471859 2.231602557e-38
0.8449906111 10.8975935 -5.361571312 2.231602557e-38
0.8009819984 10.89823532 -5.360260963 2.231602557e-38
0.711450696 10.87551498 -5.346098423 2.231602557e-38
0.6678933501 10.88104057 -5.347450733 2.231602557e-38
0.5789403319 10.85885525 -5.334087849 2.231602557e-38
0.5380436182 10.91704845 -5.361568451 2.231602557e-38
0.4502702355 10.92151833 -5.361811638 2.231602557e-38
0.4055915177 10.90238667 -5.351574421 2.231602557e-38
0.3624902368 10.92585754 -5.36233902 2.231602557e-38
0.3177120388 10.89811897 -5.348054409 2.231602557e-38
0.2306586653 10.92743206 -5.361355305 2.231602557e-38
0.1423771083 10.89659595 -5.345493793 2.231602557e-38
0.05480381474 10.90618801 -5.349809647 2.231602557e-38
-0.03298201784 10.94156647 -5.367121696 2.231602557e-38
-0.07674200088 10.90892792 -5.35121727 2.231602557e-38
-0.1209883392 10.94410419 -5.368668079 2.231602557e-38
-0.2519646883 10.89885902 -5.347574711 2.231602557e-38
-0.2973439097 10.95553398 -5.375927925 2.231602557e-38
-0.3845263124 10.92749786 -5.363511562 2.231602557e-38
-0.472905606 10.93643379 -5.369588852 2.231602557e-38
-0.5201972723 10.14053249 -4.980709076 2.240786106e-38
-0.6045965552 10.92705631 -5.36817646 2.231602557e-38
-0.6944972277 10.95450497 -5.38422823 2.231602557e-38
-0.7389211655 10.95735264 -5.38704443 2.231602557e-38
-0.7845265865 10.97621346 -5.397824764 2.231602557e-38
-0.8246960044 10.92075062 -5.372136593 2.231602557e-38
-0.8703727126 10.93969345 -5.383135319 2.231602557e-38
-0.7697119713 8.780957222 -4.323780537 2.249969656e-38
-0.83810395 8.751686096 -4.312547684 2.249969656e-38
-0.8746894002 8.762395859 -4.319523811 2.249969656e-38
-0.9505822062 8.805776596 -4.344534874 2.249969656e-38
-0.985303998 8.795936584 -4.34159708 2.249969656e-38
-1.02750051 8.850838661 -4.370701313 2.249969656e-38
-1.314039946 10.9351263 -5.402525425 2.231602557e-38
-1.40610683 10.95684624 -5.418667793 2.231602557e-38
-1.451505065 10.96142101 -5.423770428 2.231602557e-38
-1.535892367 10.92311573 -5.410752773 2.231602557e-38
-1.622757316 10.90435696 -5.407748699 2.231602557e-38
-1.664119124 10.88165092 -5.399764538 2.231602557e-38
-1.709246397 10.88376904 -5.404178619 2.231602557e-38
-1.752871156 10.87610531 -5.403831005 2.231602557e-38
-1.840307355 10.86197376 -5.403982162 2.231602557e-38
-1.881220341 10.83872128 -5.39613533 2.231602557e-38
-1.922527432 10.81842995 -5.389837742 2.231602557e-38
-1.969388604 10.82922173 -5.399111271 2.231602557e-38
-2.020191669 10.86041164 -5.418669224 2.231602557e-38
-2.060001373 10.83202362 -5.408592701 2.231602557e-38
-2.138132811 10.77038002 -5.386224747 2.231602557e-38
-2.188134432 10.7948122 -5.402798653 2.231602557e-38
-2.320576668 10.77889061 -5.408446789 2.231602557e-38
-2.358655691 10.74563694 -5.396474361 2.231602557e-38
-2.401082754 10.73273373 -5.394795418 2.231602557e-38
-2.443134308 10.71827793 -5.392421246 2.231602557e-38
-2.49003315 10.72484493 -5.400718212 2.231602557e-38
-2.699332714 10.64992905 -5.389230728 2.231602557e-38
-2.747418404 10.65955257 -5.399646759 2.231602557e-38
-2.83217001 10.63387871 -5.398000717 2.231602557e-38
-2.925549984 10.63975906 -5.412749767 2.231602557e-38
-2.972677469 10.64360237 -5.420741081 2.231602557e-38
-3.039294004 10.55387497 -5.387314796 2.231602557e-38
-3.091311932 10.57445717 -5.404119015 2.231602557e-38
-3.31091857 10.534729 -5.416737556 2.231602557e-38
-3.385565519 10.47699451 -5.400871754 2.231602557e-38
-3.437327385 10.492836 -5.416119576 2.231602557e-38
-3.566351175 10.74053383 -5.551328659 2.222419007e-38
-3.613647223 10.73844242 -5.557710648 2.222419007e-38
-3.664294481 10.74586296 -5.569131374 2.222419007e-38
-3.750545502 10.71597672 -5.56908989 2.222419007e-38
-3.788374662 10.68610477 -5.561433315 2.222419007e-38
-3.928385735 10.67065811 -5.57764864 2.222419007e-38
-3.990301847 10.57578087 -5.544644356 2.222419007e-38
-4.042397022 10.5848341 -5.55786705 2.222419007e-38
-4.132591724 10.56534481 -5.564900875 2.222419007e-38
-4.250089169 10.49097061 -5.55232048 2.222419007e-38
-4.362779617 10.40674877 -5.535188198 2.222419007e-38
-4.410654545 10.40346336 -5.542826176 2.222419007e-38
-4.509969234 10.40413761 -5.562329292 2.222419007e-38
-4.635098457 10.34897995 -5.562318802 2.222419007e-38
-4.662681103 10.29937363 -5.545689106 2.222419007e-38
-4.760580063 10.29452229 -5.56350708 2.222419007e-38
-4.800857544 10.27301884 -5.562268257 2.222419007e-38
-4.872725964 10.21194172 -5.55023241 2.222419007e-38
-4.929299831 10.22454834 -5.567808151 2.222419007e-38
-4.962889194 10.18929482 -5.559433937 2.222419007e-38
-5.061215878 10.18240356 -5.577692986 2.222419007e-38
-5.115727425 10.08777714 -5.548208714 2.222419007e-38
-5.161003113 10.07641888 -5.55332756 2.222419007e-38
-5.315854073 9.979927063 -5.546544552 2.222419007e-38
-5.358129025 9.962562561 -5.548818588 2.222419007e-38
-5.399353504 9.943195343 -5.550076962 2.222419007e-38
-5.447214603 9.935869217 -5.558166504 2.222419007e-38
-5.500680923 9.938405037 -5.571910858 2.222419007e-38
-5.566815376 9.869758606 -5.558341503 2.222419007e-38
-5.607691765 9.849487305 -5.559574127 2.222419007e-38
-5.652151108 9.835426331 -5.564414501 2.222419007e-38
-5.671432495 9.777758598 -5.544647217 2.222419007e-38
-5.711352825 9.756010056 -5.545287609 2.222419007e-38
-5.777673721 9.778928757 -5.571473598 2.222419007e-38
-5.838811874 9.703410149 -5.55501318 2.222419007e-38
-5.869518757 9.666273117 -5.547217846 2.222419007e-38
-5.944522381 9.614699364 -5.544865608 2.222419007e-38
-5.998616219 9.615557671 -5.559221745 2.222419007e-38
-6.029675961 9.57937336 -5.55227232 2.222419007e-38
-6.067893505 9.554678917 -5.552053928 2.222419007e-38
-6.103506088 9.525915146 -5.549554825 2.222419007e-38
-6.128065586 9.480128288 -5.537184715 2.222419007e-38
-6.182875156 9.481099129 -5.552224159 2.222419007e-38
-6.214742661 9.44675827 -5.54669857 2.222419007e-38
-6.271158695 9.44955349 -5.563100338 2.222419007e-38
-6.303033829 9.415213585 -5.557753086 2.222419007e-38
-6.329809666 9.373479843 -5.548097134 2.222419007e-38
-6.415506363 9.337630272 -5.557226658 2.222419007e-38
-6.442738056 9.296969414 -5.548397541 2.222419007e-38
-6.474742413 9.263386726 -5.543843269 2.222419007e-38
-6.529438019 9.262123108 -5.558752537 2.222419007e-38
-6.54620409 9.2070961 -5.541472435 2.222419007e-38
-6.580440998 9.17689991 -5.539177895 2.222419007e-38
-6.623707294 9.15927124 -5.544561863 2.222419007e-38
-6.702400684 9.112882614 -5.548924923 2.222419007e-38
-6.788430214 9.076057434 -5.559553623 2.222419007e-38
-6.832521439 8.983504295 -5.53633213 2.222419007e-38
-6.882115841 8.97362709 -5.547246933 2.222419007e-38
-6.92996645 8.961167336 -5.556725979 2.222419007e-38
-6.952082634 8.915481567 -5.545677662 2.222419007e-38
-7.019758224 8.854539871 -5.542701721 2.222419007e-38
-7.054997444 8.825874329 -5.542459488 2.222419007e-38
-7.115086079 8.755767822 -5.534183502 2.222419007e-38
-7.272309303 8.660908699 -5.547427177 2.222419007e-38
-7.286780834 8.607636452 -5.532021999 2.222419007e-38
-7.436706543 8.503613472 -5.541307449 2.222419007e-38
-7.47026062 8.472997665 -5.540887833 2.222419007e-38
-7.560910702 8.370126724 -5.532846451 2.222419007e-38
-7.599875927 8.345578194 -5.536763191 2.222419007e-38
-7.624856949 8.305689812 -5.530594826 2.222419007e-38
-7.747643948 8.237779617 -5.547193527 2.222419007e-38
-7.769760609 8.195029259 -5.539391994 2.222419007e-38
-7.811257839 8.107247353 -5.522327423 2.222419007e-38
-7.926606655 8.095692635 -5.557685852 2.222419007e-38
-7.955456257 8.060071945 -5.555148125 2.222419007e-38
-7.967000484 8.007143021 -5.540689468 2.222419007e-38
-7.984885216 7.960849762 -5.530823708 2.222419007e-38
-8.044010162 7.955573082 -5.549583912 2.222419007e-38
-8.079609871 7.926754951 -5.552089691 2.222419007e-38
-8.129459381 7.848412514 -5.542824268 2.222419007e-38
-8.197385788 7.787653446 -5.546277046 2.222419007e-38
-8.217061996 7.743784904 -5.538517475 2.222419007e-38
-8.334872246 7.60550499 -5.534763336 2.222419007e-38
-8.359862328 7.56695652 -5.531122684 2.222419007e-38
-8.391817093 7.534620285 -5.53209734 2.231602557e-38
-8.413537025 7.49331665 -5.52656126 2.231602557e-38
-8.424004555 7.442124367 -5.513735294 2.231602557e-38
-8.493779182 7.44323349 -5.539816856 2.231602557e-38
-8.529548645 7.414124489 -5.543619156 2.231602557e-38
-8.557724953 7.31866169 -5.523509979 2.231602557e-38
-8.598796844 7.294138908 -5.531049252 2.231602557e-38
-8.65623951 7.223993301 -5.530457497 2.231602557e-38
-8.671603203 7.177875519 -5.521791935 2.231602557e-38
-8.756206512 7.071704865 -5.520956039 2.231602557e-38
-8.829618454 7.014453411 -5.531503677 2.231602557e-38
-8.87057972 6.989013672 -5.539517879 2.231602557e-38
-8.948607445 6.820178509 -5.519043922 2.231602557e-38
-8.99997139 6.802304268 -5.533807755 2.231602557e-38
-9.074706078 6.632254601 -5.513474941 2.231602557e-38
-9.135043144 6.620182037 -5.533918858 2.231602557e-38
-9.145095825 6.571545601 -5.523956299 2.231602557e-38
-9.172437668 6.535446644 -5.524558067 2.231602557e-38
-9.29389286 6.399206638 -5.535015106 2.231602557e-38
-9.268270493 6.326801777 -5.504567146 2.231602557e-38
-9.363232613 6.281872272 -5.530794144 2.231602557e-38
-9.380955696 6.239214897 -5.526397228 2.231602557e-38
-9.419036865 6.210081577 -5.534081459 2.231602557e-38
-9.417337418 6.15478754 -5.518500328 2.231602557e-38
-9.484035492 6.090132713 -5.528715611 2.231602557e-38
-9.492114067 6.041567802 -5.51922226 2.231602557e-38
-9.602758408 5.844165325 -5.514132977 2.231602557e-38
-9.710832596 5.698010921 -5.522861004 2.231602557e-38
-9.753633499 5.670547962 -5.534194469 2.231602557e-38
-9.768156052 5.574392796 -5.516821861 2.231602557e-38
-9.800671577 5.540837288 -5.522564411 2.231602557e-38
-9.839427948 5.510669231 -5.531877518 2.231602557e-38
-9.882611275 5.430952549 -5.531424999 2.231602557e-38
-9.93764782 5.409285069 -5.550012589 2.231602557e-38
-9.929130554 5.353027821 -5.533193111 2.231602557e-38
-9.944239616 5.309683323 -5.529675484 2.231602557e-38
-9.998211861 5.235641003 -5.536100388 2.231602557e-38
-9.984287262 5.177314758 -5.516820908 2.231602557e-38
-10.02573586 5.147764683 -5.528242588 2.231602557e-38
-10.05612659 5.061630726 -5.522383213 2.231602557e-38
-10.09194279 5.028907776 -5.53090477 2.231602557e-38
-10.11958981 4.941522121 -5.524103165 2.231602557e-38
-10.19728851 4.777955532 -5.523857117 2.231602557e-38
-10.21630096 4.736878872 -5.52380228 2.231602557e-38
-10.24281406 4.699240208 -5.527877331 2.231602557e-38
-10.23888874 4.647702694 -5.515629292 2.231602557e-38
-10.25554276 4.605633736 -5.514586449 2.231602557e-38
-10.28578854 4.520195961 -5.511127949 2.231602557e-38
-10.33766842 4.493499756 -5.529202461 2.231602557e-38
-10.35635471 4.402959347 -5.520081997 2.231602557e-38
-10.41161919 4.327963829 -5.530813694 2.231602557e-38
-10.43175507 4.238295555 -5.523224831 2.231602557e-38
-10.46840191 4.204234123 -5.533640385 2.231602557e-38
-10.49240971 4.116229057 -5.528657436 2.231602557e-38
-10.52446938 4.080067158 -5.536867619 2.231602557e-38
-10.54820156 3.943615913 -5.523927689 2.231602557e-38
-10.5930891 3.863596916 -5.53098774 2.231602557e-38
-10.5715971 3.807684422 -5.511728764 2.231602557e-38
-10.60581017 3.771915913 -5.521616936 2.231602557e-38
-10.629529 3.732281446 -5.526108742 2.231602557e-38
-10.63274097 3.685473204 -5.52003336 2.231602557e-38
-10.6878891 3.656516552 -5.540986061 2.231602557e-38
-10.69849777 3.612171173 -5.538915157 2.231602557e-38
-10.67275524 3.555755854 -5.518139839 2.231602557e-38
-10.68287277 3.511471272 -5.516027927 2.231602557e-38
-10.71108055 3.473095179 -5.523337841 2.231602557e-38
-10.75028706 3.438124657 -5.536386967 2.231602557e-38
-10.71971798 3.380896807 -5.513598442 2.231602557e-38
-10.75188637 3.343575954 -5.523186207 2.231602557e-38
-10.76101971 3.251779795 -5.514269829 2.231602557e-38
-10.78455353 3.211623907 -5.519668579 2.231602557e-38
-10.82186508 3.17544055 -5.532186985 2.231602557e-38
-10.83261204 3.131355286 -5.531199932 2.231602557e-38
-10.86952019 3.094727993 -5.543649197 2.231602557e-38
-10.8687067 3.04731226 -5.536942482 2.231602557e-38
-10.8434906 2.993287325 -5.517921448 2.231602557e-38
-10.85900974 2.950638771 -5.519739628 2.231602557e-38
-10.86202049 2.904627323 -5.515290737 2.231602557e-38
-10.90391254 2.822081327 -5.524859905 2.231602557e-38
-10.90398979 2.775393963 -5.519202709 2.231602557e-38
-10.90778732 2.729703665 -5.515525818 2.231602557e-38
-10.93912983 2.690879107 -5.525859356 2.231602557e-38
-11.04961205 2.205124378 -5.526972294 2.231602557e-38
-11.04460621 2.157986641 -5.520082951 2.231602557e-38
-11.06402683 2.115655184 -5.52549696 2.231602557e-38
-11.08315372 2.073140621 -5.53083849 2.231602557e-38
-11.0731411 2.025243282 -5.521739483 2.231602557e-38
-11.0900116 1.936321855 -5.522210598 2.231602557e-38
-11.11263561 1.894270897 -5.529633999 2.231602557e-38
-11.10413647 1.846917748 -5.521667957 2.231602557e-38
-11.14527893 1.761788845 -5.53490448 2.231602557e-38
-11.1089077 1.664608598 -5.510013103 2.231602557e-38
-11.16223621 1.580951452 -5.529980659 2.231602557e-38
-11.18098259 1.492007852 -5.533151627 2.231602557e-38
-11.17168808 1.445091128 -5.525631905 2.231602557e-38
-11.17348576 1.354066849 -5.520953178 2.231602557e-38
-11.19591141 1.311142087 -5.529389381 2.231602557e-38
-11.2080307 1.221305251 -5.530343533 2.231602557e-38
-11.20750237 1.175683022 -5.5277071 2.231602557e-38
-11.20297432 1.129689455 -5.523189545 2.231602557e-38
-11.23303986 1.087120771 -5.535813808 2.231602557e-38
-11.27553272 0.9541239738 -5.550682068 2.231602557e-38
