# .PCD v0.7 - Point Cloud Data file format
VERSION 0.7
FIELDS x y z rgb
SIZE 4 4 4 4
TYPE F F F F
COUNT 1 1 1 1
WIDTH 893
HEIGHT 1
VIEWPOINT 0 0 0 1 0 0 0
POINTS 893
DATA ascii
-20.7383728 -34.78046799 -4.810112476 1.992830267e-38
-23.02060318 -38.96321487 -5.375741005 1.946912519e-38
-22.73166847 -39.19026566 -5.381676674 1.946912519e-38
-20.67023659 -36.30569839 -4.962582588 1.974463167e-38
-22.08473396 -39.52591324 -5.378303528 1.946912519e-38
-21.45806694 -39.89772797 -5.38124609 1.946912519e-38
-21.30064774 -39.98957443 -5.382040501 1.946912519e-38
-20.95104408 -40.10707092 -5.37501049 1.946912519e-38
-20.80839729 -40.22724152 -5.379859924 1.946912519e-38
-20.51791954 -40.45919418 -5.388685703 1.946912519e-38
-20.35198593 -40.53543091 -5.387859344 1.946912519e-38
-20.08563614 -40.81951904 -5.404055595 1.946912519e-38
-19.78092003 -41.03033066 -5.410658836 1.946912519e-38
-19.42630005 -41.13698196 -5.403952599 1.946912519e-38
-19.0833931 -41.26687622 -5.40068531 1.946912519e-38
-18.59520531 -41.51826859 -5.403842449 1.946912519e-38
-18.08096313 -41.71133804 -5.400196552 1.946912519e-38
-17.90587997 -41.76246262 -5.397988796 1.946912519e-38
-17.77179337 -41.91848755 -5.408341885 1.946912519e-38
-17.75411987 -42.34978485 -5.454733849 1.946912519e-38
-17.73897171 -42.79530334 -5.502888203 1.946912519e-38
-17.70775986 -43.21023941 -5.547045708 1.937728969e-38
-17.55743599 -43.33912659 -5.554486275 1.937728969e-38
-17.39085388 -43.42908096 -5.556974888 1.937728969e-38
-17.20430756 -43.46803284 -5.553152561 1.937728969e-38
-16.86093521 -43.62260437 -5.555349827 1.937728969e-38
-16.69469643 -43.71426773 -5.558431625 1.937728969e-38
-16.51063347 -43.75932312 -5.555674553 1.937728969e-38
-15.98369503 -43.96068954 -5.556362152 1.937728969e-38
-15.81330013 -44.04253769 -5.558629036 1.937728969e-38
-15.62198162 -44.06587219 -5.553602219 1.937728969e-38
-15.45264149 -44.15095901 -5.556452274 1.937728969e-38
-14.74668312 -44.41162109 -5.558693409 1.937728969e-38
-14.36731339 -44.46118927 -5.550260067 1.937728969e-38
-14.19218063 -44.53018951 -5.551707268 1.937728969e-38
-13.29337311 -44.80322647 -5.551310062 1.937728969e-38
-13.122612 -44.88864899 -5.55531168 1.937728969e-38
-12.93945026 -44.93195724 -5.554189682 1.937728969e-38
-12.77157021 -45.02892303 -5.559785843 1.937728969e-38
-12.58668709 -45.06645584 -5.558135986 1.937728969e-38
-12.40105915 -45.10076523 -5.556165218 1.937728969e-38
-12.22496796 -45.16988754 -5.558580875 1.937728969e-38
-12.04024315 -45.20724487 -5.557177544 1.937728969e-38
-11.86200714 -45.2689476 -5.55885601 1.937728969e-38
-11.67825985 -45.30981445 -5.558063984 1.937728969e-38
-11.49074459 -45.33554077 -5.555508137 1.937728969e-38
-11.30810547 -45.38017273 -5.555363178 1.937728969e-38
-10.57763958 -45.55901337 -5.55571413 1.937728969e-38
-10.39323044 -45.59598923 -5.555083752 1.937728969e-38
-10.02887058 -45.68974304 -5.556502819 1.937728969e-38
-9.48115921 -45.82677078 -5.558856964 1.937728969e-38
-8.918322563 -45.88891602 -5.55294466 1.937728969e-38
-8.557917595 -46.00657654 -5.558675766 1.937728969e-38
-8.186378479 -46.06597519 -5.557726383 1.937728969e-38
-8.003078461 -46.10966492 -5.559072018 1.937728969e-38
-7.812941551 -46.11371231 -5.555727959 1.937728969e-38
-7.628516197 -46.15106964 -5.556483269 1.937728969e-38
-7.439422607 -46.15954971 -5.553859234 1.937728969e-38
-7.254141331 -46.1912384 -5.55411911 1.937728969e-38
-7.067178249 -46.2121582 -5.553171158 1.937728969e-38
-6.139043331 -46.360466 -5.55505085 1.937728969e-38
-5.767806053 -46.42203522 -5.556669235 1.937728969e-38
-5.581443787 -46.44729996 -5.556976795 1.937728969e-38
-5.20569706 -46.47152328 -5.554688931 1.937728969e-38
-5.016525269 -46.47069931 -5.552134514 1.937728969e-38
-4.832033634 -46.51325226 -5.554851055 1.937728969e-38
-4.083842278 -46.58853912 -5.555282116 1.937728969e-38
-3.521601439 -46.63307571 -5.555123806 1.937728969e-38
-3.147480488 -46.67342758 -5.556737423 1.937728969e-38
-2.959051132 -46.67338943 -5.555271149 1.937728969e-38
-2.771275043 -46.68268967 -5.555007935 1.937728969e-38
-2.209921837 -46.75135803 -5.559605598 1.937728969e-38
-2.021368027 -46.74606705 -5.557961941 1.937728969e-38
-1.83348763 -46.75513458 -5.55811882 1.937728969e-38
-1.602140903 -45.53314972 -5.411734581 1.946912519e-38
-1.416427612 -45.44976807 -5.401411533 1.946912519e-38
-1.23374927 -45.45641708 -5.401569366 1.946912519e-38
-1.050990343 -45.46026611 -5.401482105 1.946912519e-38
-0.8684718609 -45.47665787 -5.402970791 1.946912519e-38
-0.3201949 -45.51524353 -5.406702042 1.946912519e-38
0.04573821276 -45.51220703 -5.406211376 1.946912519e-38
0.2286949903 -45.51170349 -5.406216145 1.946912519e-38
0.3445992768 -38.09771347 -4.525656223 2.011197366e-38
0.3702051044 -28.33465576 -3.366044283 2.084665763e-38
0.9604298472 -45.50107574 -5.406088829 1.946912519e-38
0.3953584731 -11.91675663 -1.416319966 2.231602557e-38
0.4432456493 -11.91471958 -1.416277885 2.231602557e-38
0.5430141091 -11.99898052 -1.426766992 2.231602557e-38
2.232360125 -45.29571152 -5.387013435 1.946912519e-38
2.411921024 -45.23924637 -5.381409168 1.946912519e-38
2.592556477 -45.20821762 -5.378920555 1.946912519e-38
2.77324295 -45.18074036 -5.376932621 1.946912519e-38
2.956661463 -45.19695282 -5.380235195 1.946912519e-38
3.136512756 -45.15848541 -5.377114296 1.946912519e-38
3.50151372 -45.1581192 -5.380248547 1.946912519e-38
3.685774326 -45.17752457 -5.384281158 1.946912519e-38
4.043634415 -45.08795166 -5.377307415 1.946912519e-38
4.224218845 -45.0646019 -5.376502514 1.946912519e-38
4.406528473 -45.05934143 -5.377946854 1.946912519e-38
4.770597935 -45.04084015 -5.380141258 1.946912519e-38
4.95131588 -45.01849747 -5.379808903 1.946912519e-38
5.310083866 -44.95176697 -5.37676239 1.946912519e-38
5.491624355 -44.9372139 -5.377619267 1.946912519e-38
5.849879742 -44.86972809 -5.374998093 1.946912519e-38
6.031044006 -44.85209656 -5.375746727 1.946912519e-38
6.396074772 -44.83454132 -5.379631519 1.946912519e-38
6.573922157 -44.79256821 -5.377723217 1.946912519e-38
6.75715971 -44.78715897 -5.380291462 1.946912519e-38
6.933990002 -44.73925781 -5.377838612 1.946912519e-38
6.704703331 -42.13994217 -5.068592072 1.974463167e-38
7.050665855 -42.12872314 -5.073897362 1.974463167e-38
7.111889362 -41.46988678 -4.997950554 1.974463167e-38
6.464868069 -36.80826569 -4.439230442 2.011197366e-38
6.596452236 -36.69111633 -4.428262711 2.011197366e-38
6.72004652 -36.53465652 -4.412613392 2.020380915e-38
7.075253487 -36.0187645 -4.360284805 2.020380915e-38
7.038645744 -35.08607483 -4.250769138 2.029564465e-38
6.501074791 -31.1073761 -3.774948835 2.057115114e-38
6.698611736 -30.81329346 -3.745676279 2.066298664e-38
6.808598518 -30.7237339 -3.738085985 2.066298664e-38
7.067723274 -30.72160912 -3.744621038 2.066298664e-38
7.178961754 -30.64085388 -3.738265753 2.066298664e-38
7.361265659 -30.31932449 -3.706138611 2.066298664e-38
6.337341785 -24.7939682 -3.039861202 2.112216412e-38
6.353746414 -24.44810295 -3.000564098 2.112216412e-38
6.458687305 -24.44777679 -3.003684044 2.112216412e-38
6.563599586 -24.4465065 -3.006738186 2.112216412e-38
6.76155138 -23.30311584 -2.882250547 2.121399961e-38
6.76973772 -22.64932251 -2.808026552 2.130583511e-38
6.776179314 -22.3431263 -2.773419619 2.130583511e-38
6.775705814 -22.02239037 -2.736966133 2.130583511e-38
6.121030807 -19.61370468 -2.440652132 2.15813416e-38
6.098909855 -19.27008247 -2.400923729 2.15813416e-38
6.148730755 -19.15941048 -2.390195608 2.15813416e-38
6.263159752 -18.98989677 -2.375253201 2.15813416e-38
6.753854752 -18.69233513 -2.360876799 2.15813416e-38
6.806879997 -18.60471535 -2.353247881 2.15813416e-38
6.854752064 -18.50470734 -2.344063282 2.167317709e-38
7.038925648 -18.32052231 -2.331317663 2.167317709e-38
7.108428001 -18.28156853 -2.329977751 2.167317709e-38
7.195791721 -18.28824615 -2.334498644 2.167317709e-38
7.351299286 -18.25141525 -2.337269306 2.167317709e-38
7.4482584 -18.27976608 -2.344722509 2.167317709e-38
7.595757961 -18.42940331 -2.367802143 2.15813416e-38
7.834435463 -18.79371071 -2.418634415 2.15813416e-38
8.009813309 -18.78766441 -2.426065207 2.15813416e-38
8.198065758 -18.80860138 -2.4372015 2.15813416e-38
8.281243324 -18.79282188 -2.439450741 2.15813416e-38
8.355031013 -18.75558853 -2.438956976 2.15813416e-38
8.477816582 -18.8272419 -2.45268774 2.15813416e-38
8.646698952 -18.79713821 -2.457743168 2.15813416e-38
8.736649513 -18.79332352 -2.461816311 2.15813416e-38
9.001566887 -18.76773453 -2.472506046 2.14895061e-38
9.10615921 -18.79169083 -2.480465174 2.14895061e-38
9.384977341 -18.78631783 -2.494514465 2.14895061e-38
9.469704628 -18.76683617 -2.496961594 2.14895061e-38
9.579362869 -18.79590225 -2.505933523 2.14895061e-38
9.661105156 -18.76942062 -2.507560253 2.14895061e-38
9.839038849 -18.74321365 -2.514545679 2.14895061e-38
9.944233894 -18.75997543 -2.522137403 2.14895061e-38
10.0482235 -18.77339935 -2.529351711 2.14895061e-38
10.13611889 -18.75598526 -2.532476187 2.14895061e-38
10.32445526 -18.74263954 -2.541798115 2.14895061e-38
10.43751621 -18.7689476 -2.551036119 2.14895061e-38
10.52834797 -18.75439262 -2.55479002 2.14895061e-38
10.82134342 -18.74313354 -2.57084918 2.14895061e-38
10.91230011 -18.726408 -2.574550152 2.14895061e-38
11.0081625 -18.71754265 -2.579395294 2.14895061e-38
11.20942497 -18.71380806 -2.591216087 2.14895061e-38
11.45193577 -18.77457237 -2.612295389 2.13976706e-38
11.64275455 -18.74670029 -2.621358633 2.13976706e-38
11.86347103 -18.76378059 -2.636996031 2.13976706e-38
11.97243118 -18.76863098 -2.644423008 2.13976706e-38
12.333745 -18.66615868 -2.657594204 2.13976706e-38
12.31711769 -18.4790535 -2.637964249 2.13976706e-38
12.2884407 -18.27640152 -2.616087437 2.13976706e-38
12.38458347 -18.26042366 -2.620893955 2.13976706e-38
12.50170422 -18.27453995 -2.630111456 2.13976706e-38
12.62040615 -18.28984451 -2.639594078 2.13976706e-38
12.70808029 -18.25944901 -2.64255929 2.13976706e-38
12.86187553 -18.32289886 -2.659202337 2.13976706e-38
13.06061172 -18.29149628 -2.66980052 2.13976706e-38
13.25351429 -18.40475655 -2.69408679 2.13976706e-38
13.45195866 -18.52285004 -2.719266653 2.13976706e-38
13.66930962 -18.66387558 -2.748002291 2.130583511e-38
14.43740368 -19.54730225 -2.886608839 2.121399961e-38
14.971488 -19.9330616 -2.961250544 2.121399961e-38
15.22342777 -19.93273163 -2.979286671 2.121399961e-38
15.3086462 -19.87813568 -2.980321884 2.121399961e-38
15.42300415 -19.86095428 -2.987003088 2.112216412e-38
15.77249432 -20.14333534 -3.03898263 2.112216412e-38
16.28357124 -20.62469101 -3.121454716 2.103032862e-38
16.29305458 -20.46698952 -3.107474566 2.112216412e-38
16.28816605 -20.29291725 -3.090960026 2.112216412e-38
16.40916252 -20.11027145 -3.083137751 2.112216412e-38
16.57728577 -19.98611259 -3.084435701 2.112216412e-38
17.19197464 -19.89931488 -3.123749495 2.103032862e-38
17.37845993 -19.79124641 -3.128616095 2.103032862e-38
17.46521378 -19.72951508 -3.129930973 2.103032862e-38
17.78119278 -19.44722176 -3.130105019 2.103032862e-38
17.96055603 -19.32902145 -3.134221792 2.103032862e-38
18.2303772 -19.15096283 -3.140772104 2.103032862e-38
18.29722595 -19.06710434 -3.139057636 2.103032862e-38
18.39378357 -19.01413918 -3.142485142 2.103032862e-38
18.48206902 -18.95235443 -3.144528151 2.103032862e-38
18.56830406 -18.88827705 -3.146255255 2.103032862e-38
18.69405174 -18.41436768 -3.116984844 2.103032862e-38
18.81516075 -18.38521957 -3.124829292 2.103032862e-38
18.96068382 -18.23172188 -3.124550581 2.103032862e-38
19.07129478 -18.19109154 -3.13070035 2.103032862e-38
19.21406174 -18.18031311 -3.142114639 2.103032862e-38
19.51133919 -18.16652679 -3.166741371 2.103032862e-38
20.27186394 -18.57261658 -3.265836716 2.093849312e-38
20.47862816 -18.61118317 -3.287068844 2.093849312e-38
20.80601692 -18.60550117 -3.315500021 2.093849312e-38
21.15322304 -18.61207962 -3.346875429 2.093849312e-38
21.49572372 -18.60897636 -3.377283096 2.084665763e-38
21.64967537 -18.59052277 -3.389701128 2.084665763e-38
22.2028904 -18.60510445 -3.440935135 2.084665763e-38
14.90674973 -12.38958549 -2.302506924 2.167317709e-38
22.56822205 -18.60444069 -3.474258661 2.084665763e-38
22.93613052 -18.60003471 -3.50776124 2.075482213e-38
23.13510323 -18.60772133 -3.526721716 2.075482213e-38
23.3142395 -18.59794235 -3.542604208 2.075482213e-38
23.48781586 -18.58241081 -3.55760026 2.075482213e-38
23.69154549 -18.58922768 -3.577110291 2.075482213e-38
23.89295197 -18.59256363 -3.596205235 2.075482213e-38
24.30899429 -18.60445976 -3.636193991 2.066298664e-38
24.38873482 -18.5104866 -3.63694644 2.066298664e-38
24.41877365 -18.37905884 -3.630398273 2.066298664e-38
24.54309273 -18.16536713 -3.627052069 2.066298664e-38
24.64400482 -18.08719444 -3.631185532 2.066298664e-38
24.67446518 -17.95737839 -3.625026703 2.075482213e-38
24.84941483 -17.93232727 -3.640074015 2.066298664e-38
25.20815086 -18.03754807 -3.681987047 2.066298664e-38
25.4714241 -17.91806412 -3.699272633 2.066298664e-38
26.78843498 -18.52437401 -3.868797779 2.057115114e-38
27.48143005 -18.51771545 -3.936341286 2.047931564e-38
27.67411613 -18.48622894 -3.953264952 2.047931564e-38
27.91599655 -18.48595238 -3.977168798 2.047931564e-38
28.15504074 -18.4818573 -4.000607491 2.047931564e-38
28.40477943 -18.48283386 -4.025504112 2.038748015e-38
28.64217949 -18.47385406 -4.048592091 2.038748015e-38
28.85435486 -18.44687653 -4.068069458 2.038748015e-38
29.39326096 -18.46019936 -4.122984886 2.038748015e-38
29.6339035 -18.44563293 -4.146306038 2.038748015e-38
29.88950348 -18.43843269 -4.171663761 2.029564465e-38
30.13511467 -18.42313194 -4.195576668 2.029564465e-38
30.39908409 -18.41703224 -4.221987247 2.029564465e-38
30.56545258 -18.1835041 -4.224649429 2.029564465e-38
30.50708961 -17.9831562 -4.206550598 2.029564465e-38
30.72615814 -17.94622803 -4.226781845 2.029564465e-38
31.26130676 -17.92328072 -4.280436516 2.029564465e-38
33.84173965 -19.22238922 -4.623141289 2.002013816e-38
33.83578873 -19.03953171 -4.611837864 2.002013816e-38
33.82952499 -18.85734177 -4.60061264 2.002013816e-38
33.88555908 -18.71043205 -4.597967148 2.002013816e-38
33.81660843 -18.31912994 -4.568477154 2.002013816e-38
33.88962173 -18.18285561 -4.568430424 2.002013816e-38
33.9086113 -18.01786041 -4.561189175 2.002013816e-38
34.03319931 -17.90901566 -4.568227291 2.002013816e-38
35.92796326 -18.35626793 -4.792493343 1.992830267e-38
36.2726326 -18.34885979 -4.828594685 1.983646717e-38
36.61386871 -18.33700943 -4.864164352 1.983646717e-38
37.28132629 -18.29784203 -4.933130741 1.983646717e-38
38.36754227 -18.26014709 -5.047354221 1.974463167e-38
39.12822342 -18.23779869 -5.127967358 1.965279618e-38
39.42195511 -18.18217087 -5.156844616 1.965279618e-38
39.42986298 -17.80277061 -5.138988018 1.965279618e-38
39.80168152 -17.77838135 -5.178090096 1.965279618e-38
40.20111084 -17.7632885 -5.220728397 1.965279618e-38
41.54698563 -17.96014214 -5.376580715 1.946912519e-38
41.61105728 -17.78965569 -5.375573158 1.946912519e-38
41.86546707 -17.10755348 -5.372204781 1.946912519e-38
41.98447037 -16.95953178 -5.378682613 1.946912519e-38
42.0268631 -16.78048706 -5.375428677 1.946912519e-38
42.15568161 -16.44018745 -5.374825001 1.946912519e-38
42.23503113 -16.27585411 -5.376556396 1.946912519e-38
42.31430435 -16.11133766 -5.378359795 1.946912519e-38
42.37411499 -15.93937397 -5.377776146 1.946912519e-38
42.43955994 -15.76954556 -5.377990723 1.946912519e-38
42.55526352 -15.61813164 -5.384654522 1.946912519e-38
42.56178665 -15.42665672 -5.377587795 1.946912519e-38
42.76117325 -14.9179945 -5.379656315 1.946912519e-38
42.78819656 -14.73476219 -5.375561237 1.946912519e-38
42.92603302 -14.39722347 -5.378161907 1.946912519e-38
42.97677231 -14.22232056 -5.377312183 1.946912519e-38
43.22824097 -13.53833103 -5.380840302 1.946912519e-38
38.70447159 -11.610919 -4.799964905 1.992830267e-38
39.13815689 -11.56975174 -4.847943783 1.983646717e-38
43.457901 -12.65698147 -5.376670361 1.946912519e-38
40.64351654 -11.48363018 -5.016886234 1.974463167e-38
43.54625702 -12.11497402 -5.369133472 1.956096068e-38
42.11096191 -11.53346157 -5.186412811 1.965279618e-38
43.56892776 -11.74472332 -5.360116005 1.956096068e-38
43.52946854 -11.54656029 -5.349502087 1.956096068e-38
43.55203247 -11.36534023 -5.346611977 1.956096068e-38
43.62799072 -11.1980505 -5.350376129 1.956096068e-38
47.77726746 -12.05851364 -5.853192329 1.91936187e-38
43.75354767 -10.66956329 -5.349604607 1.956096068e-38
43.95172882 -9.786356926 -5.348700523 1.956096068e-38
43.99996567 -9.426468849 -5.345169544 1.956096068e-38
44.08437729 -9.07448101 -5.346388817 1.956096068e-38
44.61109161 -8.809760094 -5.401565075 1.946912519e-38
45.35623932 -8.767512321 -5.487418175 1.946912519e-38
45.49342346 -8.604453087 -5.499784946 1.946912519e-38
45.49932861 -8.416250229 -5.496358395 1.946912519e-38
45.59034729 -8.054577827 -5.499361992 1.946912519e-38
45.61054993 -7.869196892 -5.497934341 1.946912519e-38
45.67148209 -7.690766811 -5.50150919 1.946912519e-38
45.70936966 -7.508323669 -5.502392769 1.946912519e-38
45.75413895 -7.326902866 -5.504191875 1.946912519e-38
45.70808411 -7.131213188 -5.495159626 1.946912519e-38
45.7949028 -6.956282616 -5.502188683 1.946912519e-38
45.85361862 -6.400467396 -5.499570847 1.946912519e-38
45.89737701 -6.218583584 -5.501775265 1.946912519e-38
45.94286728 -5.848978043 -5.501413345 1.946912519e-38
45.97626114 -5.66550684 -5.502640724 1.946912519e-38
46.00130081 -5.293496132 -5.500365734 1.946912519e-38
46.02756882 -5.109117985 -5.501006126 1.946912519e-38
46.06605911 -4.926024437 -5.503195763 1.946912519e-38
46.07906723 -4.740142345 -5.502427578 1.946912519e-38
46.07795334 -4.365945339 -5.497925282 1.946912519e-38
46.11803818 -4.182741642 -5.500658512 1.946912519e-38
46.12958527 -3.99688983 -5.500074387 1.946912519e-38
46.17420959 -3.626997232 -5.501740932 1.946912519e-38
46.15727234 -3.439026594 -5.498030186 1.946912519e-38
46.16639328 -3.25314784 -5.497513294 1.946912519e-38
46.20129395 -3.06900835 -5.500156879 1.946912519e-38
46.23501587 -2.138954401 -5.49794054 1.946912519e-38
46.24008179 -1.952934146 -5.497566223 1.946912519e-38
46.27556992 -1.209449172 -5.498761177 1.946912519e-38
46.31285858 -0.8378911018 -5.502215862 1.946912519e-38
46.32603836 -0.4655943215 -5.503158092 1.946912519e-38
46.30296326 -0.2792114019 -5.500239849 1.946912519e-38
46.2774353 -0.09300299734 -5.497117996 1.946912519e-38
46.25899506 0.09297081828 -5.494927883 1.946912519e-38
46.31998444 0.4655382931 -5.502438068 1.946912519e-38
46.28188705 0.8373212218 -5.49853754 1.946912519e-38
46.27440643 1.023292303 -5.498092175 1.946912519e-38
46.29055023 1.209811926 -5.500543594 1.946912519e-38
46.29689026 1.396238685 -5.501917839 1.946912519e-38
46.23666763 1.580490112 -5.495473385 1.946912519e-38
46.26281738 1.767608643 -5.499381065 1.946912519e-38
46.23241806 2.325089693 -5.498700142 1.946912519e-38
46.15951538 3.066231012 -5.495179653 1.946912519e-38
46.17411423 3.253659725 -5.498444557 1.946912519e-38
46.16630173 3.439677954 -5.499110699 1.946912519e-38
46.16614151 3.626344681 -5.500781059 1.946912519e-38
46.13355637 3.810458422 -5.49867487 1.946912519e-38
46.11217499 3.995372057 -5.497999191 1.946912519e-38
46.08325577 4.179582119 -5.496509552 1.946912519e-38
46.0887413 4.366958618 -5.499213696 1.946912519e-38
46.10408783 4.555478573 -5.503185749 1.946912519e-38
46.04938507 4.73706007 -5.498883247 1.946912519e-38
46.04844284 4.924136162 -5.50109148 1.946912519e-38
45.9999733 5.106041431 -5.497709751 1.946912519e-38
46.01184082 5.294699669 -5.501626015 1.946912519e-38
45.98086929 5.478522778 -5.500512123 1.946912519e-38
45.91979599 5.658545017 -5.495883465 1.946912519e-38
45.94497681 5.84924221 -5.501666069 1.946912519e-38
45.83195114 6.585350037 -5.500096798 1.946912519e-38
45.82239151 6.772092342 -5.502175808 1.946912519e-38
45.79122162 6.955723286 -5.501746178 1.946912519e-38
45.69958878 7.129875183 -5.494137764 1.946912519e-38
44.51930237 7.129162788 -5.355641365 1.956096068e-38
44.32808304 7.831548214 -5.34709692 1.956096068e-38
44.24504089 8.368331909 -5.348865986 1.956096068e-38
44.16392517 8.721323967 -5.347365379 1.956096068e-38
44.12792587 8.898666382 -5.3472929 1.956096068e-38
44.08427048 9.259335518 -5.350853443 1.956096068e-38
43.97271729 9.420632362 -5.341864586 1.956096068e-38
44.0175705 9.615456581 -5.351965904 1.956096068e-38
43.90417862 10.14692879 -5.352667809 1.956096068e-38
43.82946777 10.31543732 -5.348574162 1.956096068e-38
43.7011261 10.84306812 -5.348480225 1.956096068e-38
43.62071228 11.19617081 -5.349482059 1.956096068e-38
43.58442307 11.37379265 -5.350596905 1.956096068e-38
43.53409958 11.73530865 -5.355827808 1.956096068e-38
43.4777298 11.90779209 -5.354739666 1.956096068e-38
43.37362671 12.25497913 -5.353878975 1.956096068e-38
36.61720276 10.66463852 -4.530329704 2.011197366e-38
36.44956207 10.77493763 -4.514910221 2.011197366e-38
36.40026855 10.91970253 -4.514207363 2.011197366e-38
36.34932327 11.06386948 -4.51336813 2.011197366e-38
36.28823471 11.20484924 -4.511338711 2.011197366e-38
36.23467636 11.50821209 -4.516037941 2.011197366e-38
36.56040955 11.93609333 -4.568448544 2.002013816e-38
42.62799835 14.67959881 -5.355434895 1.956096068e-38
30.81853294 10.75159073 -3.877188921 2.057115114e-38
30.58754158 10.94765377 -3.859077215 2.057115114e-38
30.68938828 11.12346935 -3.877537489 2.057115114e-38
30.73054886 11.55954552 -3.900068521 2.047931564e-38
30.74972725 11.70808315 -3.908443689 2.047931564e-38
42.08342361 16.21742821 -5.357256889 1.956096068e-38
42.0018425 16.38020706 -5.355209351 1.956096068e-38
41.86929703 16.71756744 -5.355275631 1.956096068e-38
41.72350311 17.04955292 -5.353987694 1.956096068e-38
41.60655975 17.39342117 -5.356753349 1.956096068e-38
41.55180359 17.56707191 -5.35875082 1.956096068e-38
41.46852493 17.72870827 -5.357159138 1.956096068e-38
23.73526192 10.48767662 -3.082381964 2.112216412e-38
23.74354172 10.60562229 -3.088970661 2.112216412e-38
23.23189926 10.60194302 -3.033398151 2.112216412e-38
23.15838432 10.79419231 -3.035032272 2.112216412e-38
23.14648438 10.90212917 -3.03919363 2.112216412e-38
23.12783623 11.00716114 -3.042528868 2.112216412e-38
23.09524918 11.2202816 -3.050012589 2.112216412e-38
22.88396454 11.34592247 -3.034057617 2.112216412e-38
22.95466805 11.4961853 -3.049534798 2.112216412e-38
40.28256607 20.37729645 -5.362389565 1.956096068e-38
40.11183548 20.69762802 -5.36164093 1.956096068e-38
39.94225311 21.01844978 -5.361388683 1.956096068e-38
39.87856293 21.19011116 -5.36423111 1.956096068e-38
39.81122208 21.35996246 -5.366680622 1.956096068e-38
39.57759094 21.64620972 -5.358472347 1.956096068e-38
39.52980042 21.82696342 -5.363839149 1.956096068e-38
39.45868683 21.99515724 -5.366143703 1.956096068e-38
39.34191513 22.1378212 -5.362325191 1.956096068e-38
39.05347061 22.59988785 -5.359769344 1.956096068e-38
39.02585983 22.79382706 -5.368512154 1.956096068e-38
38.86445618 22.90954971 -5.358935833 1.956096068e-38
38.69911194 23.23334503 -5.361719131 1.956096068e-38
38.53447342 23.55807114 -5.364979267 1.956096068e-38
16.95222855 10.55191898 -2.371917248 2.15813416e-38
16.68632507 10.57347202 -2.346528292 2.167317709e-38
16.68298912 10.66558743 -2.352071047 2.15813416e-38
16.52109718 10.65590668 -2.335267305 2.167317709e-38
16.47940254 10.72305012 -2.33544898 2.167317709e-38
16.42405891 10.78127098 -2.33372879 2.167317709e-38
16.37496376 10.93843174 -2.339173317 2.167317709e-38
16.25477982 11.14395618 -2.341033697 2.167317709e-38
16.46523094 11.48392487 -2.3845644 2.15813416e-38
36.95147705 25.99381638 -5.366559982 1.956096068e-38
35.14687729 24.93616104 -5.118988991 1.965279618e-38
34.91939163 25.19924927 -5.115199089 1.965279618e-38
26.09080505 18.98814583 -3.833085537 2.057115114e-38
25.88580322 18.99860001 -3.814158201 2.057115114e-38
25.38996315 18.95063019 -3.763426304 2.057115114e-38
24.93408585 18.92440605 -3.718285799 2.066298664e-38
24.76144791 18.95073128 -3.703871012 2.066298664e-38
24.57754707 18.96715164 -3.687739372 2.066298664e-38
24.33123589 18.93361092 -3.662172318 2.066298664e-38
24.15339279 18.95162201 -3.646843195 2.066298664e-38
22.9962616 18.95726967 -3.540150642 2.075482213e-38
22.78840256 18.94031906 -3.51984787 2.075482213e-38
22.57421112 18.91625023 -3.498479605 2.075482213e-38
22.40680885 18.92979813 -3.48430109 2.084665763e-38
22.03247261 18.91920853 -3.449633598 2.084665763e-38
21.80800438 18.87930489 -3.426343918 2.084665763e-38
21.45572853 18.87822723 -3.394732714 2.084665763e-38
21.29764557 18.89159203 -3.381711721 2.084665763e-38
21.13245201 18.89739799 -3.367516279 2.084665763e-38
20.61053467 18.88290215 -3.320394754 2.093849312e-38
20.45919228 18.89608574 -3.308224678 2.093849312e-38
20.27576828 18.87827682 -3.290810823 2.093849312e-38
19.94553566 18.8724575 -3.261735201 2.093849312e-38
10.95298672 10.53189659 -1.804954529 2.204051908e-38
10.8989563 10.56457901 -1.803034663 2.204051908e-38
10.72786808 10.48272228 -1.781687617 2.204051908e-38
10.72505665 10.56458569 -1.78825891 2.204051908e-38
10.54513836 10.81345177 -1.794142008 2.204051908e-38
10.51930618 10.87409306 -1.797170043 2.204051908e-38
10.36571121 10.88916683 -1.785830379 2.204051908e-38
10.34569836 11.04460716 -1.797622204 2.204051908e-38
16.66738892 18.82823372 -2.986950159 2.112216412e-38
16.37688446 18.80249596 -2.961883068 2.121399961e-38
16.23380661 18.79018974 -2.949642181 2.121399961e-38
16.12161064 18.81267929 -2.942974806 2.121399961e-38
15.86145687 18.81313896 -2.923001051 2.121399961e-38
15.75292206 18.8375473 -2.916931629 2.121399961e-38
15.57274914 18.77496338 -2.897523165 2.121399961e-38
15.45488834 18.78604698 -2.889621735 2.121399961e-38
15.31410503 18.76817894 -2.877380848 2.121399961e-38
14.79380703 18.73773193 -2.835873127 2.130583511e-38
14.71231747 18.78934479 -2.834708214 2.130583511e-38
14.58205128 18.77799797 -2.824131489 2.130583511e-38
14.23538494 18.79517746 -2.800689936 2.130583511e-38
13.99163055 18.78525734 -2.782359123 2.130583511e-38
13.86047935 18.7661705 -2.771256924 2.130583511e-38
13.72444725 18.73914909 -2.759097576 2.130583511e-38
13.62562656 18.76198196 -2.75437212 2.130583511e-38
13.17041302 18.76240921 -2.722991467 2.13976706e-38
12.81474209 18.73211288 -2.695968151 2.13976706e-38
12.48577881 18.7320652 -2.674094439 2.13976706e-38
12.26887798 18.7312355 -2.659808397 2.13976706e-38
11.95382881 18.73946571 -2.640313148 2.13976706e-38
11.51948357 18.71562386 -2.610515356 2.13976706e-38
11.07993031 18.66738892 -2.578600168 2.14895061e-38
10.900877 18.70676613 -2.5718503 2.14895061e-38
10.69789791 18.70251274 -2.559356451 2.14895061e-38
10.59756279 18.70112991 -2.553317547 2.14895061e-38
10.48948669 18.68511772 -2.545353889 2.14895061e-38
10.19055557 18.67677689 -2.527292013 2.14895061e-38
10.11378193 18.71459198 -2.526888132 2.14895061e-38
9.999897003 18.68305588 -2.517179966 2.14895061e-38
9.906902313 18.68951225 -2.512663603 2.14895061e-38
9.801013947 18.67074203 -2.504823685 2.14895061e-38
9.719590187 18.69787788 -2.503201246 2.14895061e-38
9.62478447 18.69880867 -2.498126268 2.14895061e-38
9.420127869 18.66854286 -2.483883619 2.14895061e-38
9.329685211 18.67559052 -2.479811668 2.14895061e-38
9.230360031 18.66408539 -2.473335743 2.14895061e-38
9.155147552 18.70079803 -2.473304272 2.15813416e-38
8.962073326 18.68533897 -2.46165061 2.15813416e-38
8.759155273 18.64525795 -2.447013855 2.15813416e-38
8.676487923 18.66387367 -2.444859505 2.15813416e-38
8.495635986 18.66599846 -2.43611002 2.15813416e-38
8.404061317 18.66340065 -2.431344032 2.15813416e-38
8.117577553 18.62392426 -2.41327095 2.15813416e-38
7.939008713 18.62154579 -2.404613733 2.15813416e-38
7.770615578 18.6405735 -2.398926497 2.15813416e-38
7.681871891 18.63832092 -2.39464283 2.15813416e-38
7.58937645 18.626091 -2.389132261 2.15813416e-38
7.507057667 18.6381073 -2.386784315 2.15813416e-38
7.428396702 18.65890503 -2.385604143 2.15813416e-38
7.33280611 18.63646126 -2.378946304 2.15813416e-38
7.073934078 18.63503075 -2.367701769 2.15813416e-38
6.980054855 18.61289215 -2.361303568 2.15813416e-38
6.908080101 18.64864731 -2.362297773 2.15813416e-38
6.822963715 18.64864349 -2.358803034 2.15813416e-38
6.808672905 19.0837307 -2.406833172 2.15813416e-38
6.819437027 19.35942268 -2.438127279 2.15813416e-38
6.804481506 19.82413101 -2.489682913 2.14895061e-38
6.802174568 20.07993317 -2.518353224 2.14895061e-38
6.809452057 20.37050819 -2.551343918 2.14895061e-38
6.786484718 20.57653046 -2.573709488 2.14895061e-38
6.781662941 20.8432312 -2.603636503 2.13976706e-38
6.786543846 21.14676857 -2.638125658 2.13976706e-38
6.772763252 21.70201111 -2.700511932 2.13976706e-38
6.768479824 21.99882126 -2.734037399 2.130583511e-38
6.751333237 22.26111603 -2.763240814 2.130583511e-38
6.766816139 22.63945007 -2.806803703 2.130583511e-38
6.760235786 22.95337105 -2.842329502 2.130583511e-38
6.733198643 23.20531845 -2.870153666 2.121399961e-38
6.734017372 23.56166267 -2.910856962 2.121399961e-38
6.720668316 23.87782478 -2.946555138 2.121399961e-38
6.720575333 24.25088692 -2.989232302 2.112216412e-38
6.716771603 24.62129593 -3.031538725 2.112216412e-38
6.690018654 25.32336426 -3.111258268 2.103032862e-38
6.694703579 25.75996971 -3.161568165 2.103032862e-38
6.695989609 26.19707298 -3.211885452 2.103032862e-38
6.663481712 26.97183609 -3.300200462 2.093849312e-38
6.652328014 27.88780212 -3.405621767 2.084665763e-38
6.644918919 28.36138153 -3.460163832 2.084665763e-38
2.75553298 11.97760963 -1.459937215 2.231602557e-38
2.632877111 11.88079929 -1.445508718 2.231602557e-38
2.640129805 12.14448357 -1.476287603 2.231602557e-38
2.514075994 11.79280567 -1.43229723 2.231602557e-38
2.425133228 11.84173965 -1.435825944 2.231602557e-38
2.379273891 11.86011696 -1.436883092 2.231602557e-38
2.31014967 11.76051235 -1.423679471 2.231602557e-38
2.281033993 11.86425781 -1.435117006 2.231602557e-38
2.179508448 11.84922695 -1.431132317 2.231602557e-38
2.133169413 11.86522102 -1.43201673 2.231602557e-38
2.086782932 11.88127136 -1.432930708 2.231602557e-38
2.069039345 12.06468868 -1.454036236 2.231602557e-38
2.015192986 12.04108047 -1.450202823 2.231602557e-38
1.884985566 12.16226006 -1.461952567 2.231602557e-38
6.367031574 42.20119095 -5.069640636 1.974463167e-38
2.623592854 17.87625122 -2.146193027 2.176501259e-38
1.757254958 12.3178215 -1.477997422 2.231602557e-38
2.4603827 17.75675964 -2.129403353 2.176501259e-38
2.38730073 17.75403023 -2.127908468 2.176501259e-38
2.313472271 17.74478531 -2.125669003 2.176501259e-38
2.169084072 17.74925995 -2.124046803 2.176501259e-38
1.017118812 8.917831421 -1.066176295 2.259153205e-38
0.9786807299 8.898364067 -1.06337595 2.259153205e-38
0.900939703 8.845402718 -1.056141257 2.259153205e-38
0.8613908291 8.808216095 -1.051279187 2.259153205e-38
0.7949035764 8.863458633 -1.057075858 2.259153205e-38
0.7623562217 8.902726173 -1.061369538 2.259153205e-38
0.7252249122 8.889300346 -1.059427261 2.259153205e-38
1.777617693 24.18643188 -2.880756617 2.121399961e-38
1.604748368 24.53095245 -2.920159578 2.121399961e-38
1.505986214 24.53485107 -2.919879436 2.121399961e-38
1.452665448 32.09882736 -3.816789865 2.057115114e-38
1.341652513 32.54243469 -3.86886549 2.057115114e-38
1.427155852 38.36230087 -4.560052395 2.002013816e-38
1.282739401 38.66294479 -4.59513855 2.002013816e-38
1.107709408 37.99632645 -4.515343189 2.011197366e-38
1.140042424 45.36494827 -5.390422344 1.946912519e-38
0.7773680687 45.49598694 -5.405069828 1.946912519e-38
0.4111993909 45.45684814 -5.39985323 1.946912519e-38
0.2285278141 45.47823715 -5.402241707 1.946912519e-38
0.04574053362 45.51553726 -5.406606674 1.946912519e-38
-0.8686368465 45.48457336 -5.403911114 1.946912519e-38
-1.235522628 45.52185822 -5.409347057 1.946912519e-38
-1.417747617 45.49179459 -5.406406403 1.946912519e-38
-1.600189209 45.47389603 -5.405000687 1.946912519e-38
-1.962199926 45.37722015 -5.395210743 1.946912519e-38
-2.147543192 45.43183517 -5.402686596 1.946912519e-38
-2.328399181 45.38875198 -5.398631573 1.946912519e-38
-2.512448311 45.40742111 -5.402009964 1.946912519e-38
-2.695067644 45.39890289 -5.402242184 1.946912519e-38
-2.879347086 45.41633224 -5.405651569 1.946912519e-38
-3.061708212 45.40117645 -5.405268669 1.946912519e-38
-3.243954659 45.38521957 -5.404884338 1.946912519e-38
-3.520344496 46.61643982 -5.553140163 1.937728969e-38
-3.709850788 46.62871552 -5.556334972 1.937728969e-38
-4.084517956 46.59627914 -5.556200027 1.937728969e-38
-4.646684647 46.54919052 -5.556866646 1.937728969e-38
-5.021053791 46.51262283 -5.557143688 1.937728969e-38
-5.39370203 46.46069336 -5.555941582 1.937728969e-38
-5.57824564 46.42056656 -5.553779125 1.937728969e-38
-5.764826775 46.39797974 -5.553804398 1.937728969e-38
-6.141897202 46.38202286 -5.55762434 1.937728969e-38
-6.322311878 46.31333542 -5.55239296 1.937728969e-38
-6.699828625 46.29801178 -5.556837559 1.937728969e-38
-6.88380146 46.2566185 -5.555143356 1.937728969e-38
-7.073303699 46.25191116 -5.55796814 1.937728969e-38
-7.622002125 46.11165237 -5.551735878 1.937728969e-38
-8.187522888 46.07242966 -5.558501244 1.937728969e-38
-8.363008499 45.98622894 -5.552110672 1.937728969e-38
-8.550981522 45.96934128 -5.554177284 1.937728969e-38
-9.281651497 45.78929901 -5.549745083 1.937728969e-38
-9.46740818 45.75999451 -5.550775051 1.937728969e-38
-9.665872574 45.79096985 -5.559185982 1.937728969e-38
-9.84200573 45.71517563 -5.554740429 1.937728969e-38
-10.20455933 45.6137085 -5.552202225 1.937728969e-38
-10.3962326 45.60910797 -5.55668211 1.937728969e-38
-11.4928236 45.34370041 -5.556512356 1.937728969e-38
-11.68246651 45.32603836 -5.56005764 1.937728969e-38
-11.8528595 45.23405457 -5.554569721 1.937728969e-38
-12.03736877 45.19641876 -5.55584383 1.937728969e-38
-12.3952322 45.07963562 -5.553563118 1.937728969e-38
-12.57785797 45.03468323 -5.554210186 1.937728969e-38
-12.93217945 44.90671539 -5.551069736 1.937728969e-38
-13.48132515 44.77577209 -5.554579258 1.937728969e-38
-13.68032455 44.78381729 -5.562351227 1.937728969e-38
-13.84439754 44.67737579 -5.555995464 1.937728969e-38
-14.00832272 44.57183456 -5.549833298 1.937728969e-38
-14.55278015 44.42396164 -5.552870274 1.937728969e-38
-14.73122883 44.36494446 -5.552854061 1.937728969e-38
-14.90510845 44.29253006 -5.551241875 1.937728969e-38
-15.09910965 44.27941513 -5.557159424 1.937728969e-38
-15.26856422 44.19392776 -5.554092407 1.937728969e-38
-15.44840908 44.1388092 -5.554913044 1.937728969e-38
-15.80653477 44.02353668 -5.556250095 1.937728969e-38
-15.98361683 43.96039581 -5.556326866 1.937728969e-38
-16.16596031 43.91168213 -5.558294773 1.937728969e-38
-16.32790184 43.80727768 -5.553387642 1.937728969e-38
-16.51996231 43.78418732 -5.558792114 1.937728969e-38
-16.87036896 43.64565277 -5.55850935 1.937728969e-38
-17.037817 43.55868912 -5.555881023 1.937728969e-38
-17.5539608 43.33051682 -5.553384781 1.937728969e-38
-17.90793991 43.20285034 -5.555294991 1.937728969e-38
-18.07872963 43.12400818 -5.554456711 1.937728969e-38
-18.25760269 43.05486679 -5.55623579 1.937728969e-38
-18.43094063 42.99119186 -5.556293011 1.937728969e-38
-18.60193825 42.91298294 -5.555788994 1.937728969e-38
-18.96998024 42.81544876 -5.562723637 1.937728969e-38
-19.12096405 42.69215775 -5.556629181 1.937728969e-38
-19.14229965 42.2833252 -5.513390541 1.946912519e-38
-19.14496613 41.40006638 -5.418107986 1.946912519e-38
-19.2689209 41.2310791 -5.406249046 1.946912519e-38
-19.41963387 41.12283707 -5.40209198 1.946912519e-38
-19.5893383 41.05397797 -5.403349876 1.946912519e-38
-19.7455368 40.95694351 -5.400979519 1.946912519e-38
-19.91778564 40.89311981 -5.403079987 1.946912519e-38
-20.07837868 40.80539322 -5.402106762 1.946912519e-38
-20.25326538 40.74647141 -5.405044556 1.946912519e-38
-20.73233032 40.47812271 -5.402222157 1.946912519e-38
-20.88757324 40.38030243 -5.400326729 1.946912519e-38
-21.07300186 40.34053421 -5.406297684 1.946912519e-38
-22.03152275 39.80570221 -5.40427351 1.946912519e-38
-22.17223167 39.68249893 -5.39961195 1.946912519e-38
-22.34796524 39.62210083 -5.403573513 1.946912519e-38
-22.50138474 39.52199936 -5.402212143 1.946912519e-38
-22.98994255 39.2709198 -5.40540123 1.946912519e-38
-23.62062263 39.61422348 -5.478620052 1.946912519e-38
-23.31028175 38.73888397 -5.370475292 1.956096068e-38
-23.30413055 38.37859726 -5.333471298 1.956096068e-38
-23.28072357 37.99492264 -5.293115616 1.956096068e-38
-23.27680016 37.64797592 -5.257771969 1.956096068e-38
-23.27133179 37.30298615 -5.222618103 1.965279618e-38
-23.27092934 36.64299393 -5.156244755 1.965279618e-38
-23.26818466 36.31529999 -5.123251438 1.965279618e-38
-23.25075912 35.96891785 -5.087531567 1.974463167e-38
-23.26809502 35.68030167 -5.059900284 1.974463167e-38
-23.25460625 35.34822845 -5.026023388 1.974463167e-38
-23.22911263 35.00223923 -4.990065098 1.974463167e-38
-23.21952629 34.38452148 -4.928456783 1.983646717e-38
-23.22415733 33.80223083 -4.871598721 1.983646717e-38
-23.21390343 33.4980011 -4.841164112 1.983646717e-38
-23.21912193 33.21944427 -4.814359188 1.992830267e-38
-23.19773293 32.90634918 -4.782459259 1.992830267e-38
-23.18618584 32.33473206 -4.726325989 1.992830267e-38
-23.17871666 31.78166962 -4.672570705 2.002013816e-38
-23.16791153 31.23622704 -4.619615555 2.002013816e-38
-23.1636219 30.96947289 -4.59389782 2.002013816e-38
-23.1587429 30.70482445 -4.568416595 2.002013816e-38
-23.1642952 30.4567337 -4.545321941 2.011197366e-38
-23.16275406 29.7043438 -4.474400997 2.011197366e-38
-23.1382618 29.18596649 -4.424194813 2.011197366e-38
-23.13365936 28.94042969 -4.401037216 2.020380915e-38
-23.12096977 28.21992683 -4.333557606 2.020380915e-38
-23.12063789 27.09004974 -4.230569363 2.029564465e-38
-23.12410927 26.87461472 -4.211405277 2.029564465e-38
-23.11814308 26.43478394 -4.171474934 2.029564465e-38
-23.09104919 26.19058037 -4.147553921 2.038748015e-38
-23.07149887 25.74806595 -4.106721878 2.038748015e-38
-23.07946014 25.54957771 -4.089825153 2.038748015e-38
-23.07741356 25.34176445 -4.071376801 2.038748015e-38
-23.07540512 24.93386078 -4.035521507 2.038748015e-38
-23.05829811 24.71533775 -4.015123844 2.047931564e-38
-23.05947876 24.51827431 -3.998134136 2.047931564e-38
-23.05973434 24.3218708 -3.981196165 2.047931564e-38
-23.06773186 24.13524628 -3.965793371 2.047931564e-38
-23.04454613 23.91774178 -3.945245504 2.047931564e-38
-23.0727272 23.75512695 -3.933688402 2.047931564e-38
-23.03802681 23.34096909 -3.895652771 2.047931564e-38
-23.042593 23.15865517 -3.880652189 2.057115114e-38
-23.06139183 22.99197769 -3.868222237 2.057115114e-38
-23.03696632 22.60121918 -3.833519936 2.057115114e-38
-23.02957535 22.41298676 -3.817266226 2.057115114e-38
-23.03833961 22.2418766 -3.803866863 2.057115114e-38
-23.04138374 22.06655884 -3.789693594 2.057115114e-38
-23.03174591 21.88047791 -3.773608923 2.057115114e-38
-23.00370598 21.67857552 -3.754705906 2.057115114e-38
-23.02861214 21.35511208 -3.730628014 2.066298664e-38
-22.99781799 20.98517418 -3.698184729 2.066298664e-38
-22.99647331 20.64759064 -3.671157122 2.066298664e-38
-23.00333023 20.48732948 -3.659072638 2.066298664e-38
-23.00387383 20.3225956 -3.646137238 2.066298664e-38
-23.01737022 20.00734329 -3.622661352 2.075482213e-38
-23.00167465 19.8319416 -3.607615948 2.075482213e-38
-22.98894691 19.66038895 -3.593193769 2.075482213e-38
-22.96861458 19.3254528 -3.5656147 2.075482213e-38
-22.97656822 19.1749115 -3.554853201 2.075482213e-38
-22.96444511 19.00870323 -3.541125774 2.075482213e-38
-22.98254776 18.86851501 -3.532194138 2.075482213e-38
-22.93965721 18.67944336 -3.514032602 2.075482213e-38
-22.97774506 18.55732918 -3.508410215 2.075482213e-38
-22.97126961 18.40001869 -3.496097803 2.075482213e-38
-22.95633507 18.23702812 -3.482638121 2.084665763e-38
-22.94924927 18.08143425 -3.47051096 2.084665763e-38
-22.97734261 17.658638 -3.442301512 2.084665763e-38
-22.94692993 17.48899651 -3.427185297 2.084665763e-38
-22.95163727 17.34715843 -3.417445183 2.084665763e-38
-22.94506454 17.19768524 -3.406144857 2.084665763e-38
-22.96541214 17.06919479 -3.398951292 2.084665763e-38
-22.93150139 16.90132332 -3.383850336 2.084665763e-38
-22.92133522 16.75204849 -3.372385025 2.084665763e-38
-22.96785736 16.64483452 -3.36935997 2.084665763e-38
-22.91658974 15.9151268 -3.31423378 2.093849312e-38
-22.92941666 15.78778172 -3.306883097 2.093849312e-38
-22.91836166 15.64477158 -3.296193838 2.093849312e-38
-22.89125633 15.35791779 -3.274430752 2.093849312e-38
-22.8950634 14.96329021 -3.248926163 2.093849312e-38
-22.88889694 14.56836796 -3.222882986 2.103032862e-38
-22.92405891 14.46158981 -3.219621897 2.103032862e-38
-22.92880249 14.20817089 -3.204140186 2.103032862e-38
-22.88688469 13.92878056 -3.182531357 2.103032862e-38
-22.93928909 13.83461571 -3.18205905 2.103032862e-38
-22.86273003 13.53896999 -3.15623641 2.103032862e-38
-22.85805511 13.16647053 -3.133440971 2.103032862e-38
-22.90548134 12.82843685 -3.118507862 2.103032862e-38
-22.85895348 12.68193722 -3.105207205 2.103032862e-38
-22.89389801 12.46165752 -3.096243143 2.112216412e-38
-22.88847542 12.33968544 -3.088776112 2.112216412e-38
-22.86457443 12.09056473 -3.072331667 2.112216412e-38
-22.8657093 11.97380066 -3.065993071 2.112216412e-38
-22.83990097 11.72726154 -3.04978919 2.112216412e-38
-22.88501549 11.51888084 -3.043348551 2.112216412e-38
-22.93421173 11.42830849 -3.043756723 2.112216412e-38
-23.05245018 11.14226151 -3.041394711 2.112216412e-38
-23.09959221 11.05070782 -3.041728497 2.112216412e-38
-23.15199852 10.96162701 -3.042801619 2.112216412e-38
-23.21627235 10.87801838 -3.045476913 2.112216412e-38
-20.96757126 9.72180748 -2.745347261 2.130583511e-38
-21.02116966 9.542078018 -2.742231607 2.130583511e-38
-23.32609558 10.47548199 -3.037399769 2.112216412e-38
-23.40547943 10.39825535 -3.042262554 2.112216412e-38
-23.42592812 10.29476547 -3.039516211 2.112216412e-38
-23.48181343 10.20690346 -3.041419506 2.112216412e-38
-23.52753448 10.11453438 -3.042049646 2.112216412e-38
-23.74270058 10.09412575 -3.064598322 2.112216412e-38
-23.97054291 10.07742023 -3.088753462 2.112216412e-38
-24.25564957 10.08274555 -3.120242834 2.103032862e-38
-24.78167534 10.06849575 -3.177395344 2.103032862e-38
-25.64502716 10.06067562 -3.272294998 2.093849312e-38
-26.22285461 10.04484367 -3.335613728 2.093849312e-38
-26.82823181 10.03016663 -3.402250528 2.084665763e-38
-27.1078949 10.01067638 -3.432584047 2.084665763e-38
-27.81651688 10.01899433 -3.51200366 2.075482213e-38
-28.10045242 9.993813515 -3.542750359 2.075482213e-38
-28.8329258 9.993941307 -3.624848604 2.066298664e-38
-29.54383087 9.975018501 -3.704019547 2.066298664e-38
-31.51636696 9.939958572 -3.925478697 2.047931564e-38
-31.93288422 9.930392265 -3.972355366 2.047931564e-38
-32.36151505 9.921196938 -4.020682335 2.038748015e-38
-32.81965256 9.917492867 -4.0726161 2.038748015e-38
-33.27127838 9.908177376 -4.123682022 2.038748015e-38
-33.7289505 9.897033691 -4.175441742 2.029564465e-38
-34.18667603 9.882242203 -4.227152348 2.029564465e-38
-35.19112015 9.866746902 -4.341403008 2.020380915e-38
-35.71145248 9.857934952 -4.400669575 2.020380915e-38
-36.265728 9.854215622 -4.464054585 2.011197366e-38
-37.91532898 9.813026428 -4.65220356 2.002013816e-38
-38.49956894 9.799290657 -4.719016552 1.992830267e-38
-39.68531036 9.762052536 -4.854579926 1.983646717e-38
-41.65362167 9.715044022 -5.080656052 1.974463167e-38
-42.33464432 9.69461441 -5.158929348 1.965279618e-38
-43.1061554 9.689069748 -5.248157024 1.956096068e-38
-43.85810852 9.673023224 -5.334927082 1.956096068e-38
-44.00037384 9.51911068 -5.347536564 1.956096068e-38
-44.04471588 9.343479156 -5.348317146 1.956096068e-38
-44.09857559 9.16983223 -5.350339413 1.956096068e-38
-44.1395607 8.993384361 -5.3508811 1.956096068e-38
-44.17909241 8.816612244 -5.351334095 1.956096068e-38
-44.21668625 8.639439583 -5.351636887 1.956096068e-38
-44.22783661 8.457206726 -5.3488307 1.956096068e-38
-44.28740311 8.284152031 -5.351962566 1.956096068e-38
-44.39113617 7.566931725 -5.349101543 1.956096068e-38
-44.43334198 7.207015514 -5.347032547 1.956096068e-38
-44.50189972 7.034657001 -5.351835251 1.956096068e-38
-44.47681808 6.847546101 -5.345465183 1.956096068e-38
-44.55418396 6.310395718 -5.345228672 1.956096068e-38
-44.64968491 5.958143234 -5.350765228 1.956096068e-38
-45.94231415 5.567580223 -5.497224808 1.946912519e-38
-46.00859833 5.2006464 -5.499976158 1.946912519e-38
-46.02235794 4.827784061 -5.496804714 1.946912519e-38
-46.06892395 4.645501614 -5.500090599 1.946912519e-38
-46.13065338 4.464467049 -5.505273819 1.946912519e-38
-46.0990448 4.274445534 -5.499406338 1.946912519e-38
-46.20438766 3.349148512 -5.502829075 1.946912519e-38
-46.15294647 3.158972025 -5.495145798 1.946912519e-38
-46.19350052 2.416211128 -5.494637489 1.946912519e-38
-46.26586533 1.860845566 -5.500175953 1.946912519e-38
-46.29393768 1.489292383 -5.501913548 1.946912519e-38
-46.26570511 1.30223453 -5.497889519 1.946912519e-38
-46.29885483 0.7445069551 -5.500361443 1.946912519e-38
-46.30628586 0.5584638715 -5.500933647 1.946912519e-38
-46.28205872 0.1860354841 -5.497700691 1.946912519e-38
-38.81772232 -1.464858906e-05 -5.500056744 2.002013816e-38
-38.80847168 -0.1560154855 -5.498790264 2.002013816e-38
-38.771492 -0.779397428 -5.494616032 2.002013816e-38
-38.79614258 -1.09199965 -5.499176979 2.002013816e-38
-38.79160309 -1.247958064 -5.499199867 2.002013816e-38
-38.79589081 -1.404240608 -5.500564098 2.002013816e-38
-38.77469635 -1.715710878 -5.499336243 2.002013816e-38
-38.78268051 -1.872304559 -5.501492023 2.002013816e-38
-38.80610275 -2.02984643 -5.505927563 2.002013816e-38
-38.73193359 -2.651027203 -5.500743866 2.002013816e-38
-38.66926575 -2.959288836 -5.495043755 2.002013816e-38
-38.65916824 -3.427923918 -5.499082088 2.002013816e-38
-38.66318512 -3.584982634 -5.501658916 2.002013816e-38
-38.65683746 -3.741191626 -5.502851963 2.002013816e-38
-38.61105728 -3.893486977 -5.498518467 2.002013816e-38
-38.59804535 -4.205914021 -5.50130415 2.002013816e-38
-38.58180237 -4.518289566 -5.50398922 2.002013816e-38
-38.55448914 -4.829637527 -5.505453587 2.002013816e-38
-38.47115326 -4.976356983 -5.49636507 2.002013816e-38
-38.47966003 -5.134824276 -5.500486851 2.002013816e-38
-38.4140625 -5.440754414 -5.49718523 2.002013816e-38
-38.3954277 -5.753341198 -5.500958443 2.002013816e-38
-38.32591248 -6.216412544 -5.501340866 2.002013816e-38
-38.32362366 -6.374247551 -5.504646778 2.002013816e-38
-38.29774857 -6.528270721 -5.504655838 2.002013816e-38
-38.23846436 -6.676464081 -5.499947071 2.002013816e-38
-38.15946579 -6.979267597 -5.496478081 2.002013816e-38
-38.16271591 -7.138524055 -5.50103426 2.002013816e-38
-38.03091431 -7.589664459 -5.494832516 2.002013816e-38
-38.05228043 -7.7531147 -5.502377033 2.002013816e-38
-37.98352051 -8.057694435 -5.501623154 2.002013816e-38
-37.94356918 -8.208764076 -5.500572681 2.002013816e-38
-37.90513992 -8.360082626 -5.499828815 2.002013816e-38
-37.76617813 -8.968569756 -5.499880314 2.002013816e-38
-37.79017639 -9.134923935 -5.508681774 2.002013816e-38
-37.69005966 -9.271253586 -5.499475002 2.002013816e-38
-37.58454514 -9.72742939 -5.500797272 2.002013816e-38
-37.14819336 -9.933839798 -5.448446274 2.002013816e-38
-36.56652069 -9.935962677 -5.368949413 2.011197366e-38
-36.37117386 -10.04006767 -5.346149921 2.011197366e-38
-36.2697258 -10.48439884 -5.349434853 2.011197366e-38
-36.15740204 -10.60961246 -5.339116096 2.011197366e-38
-36.16640472 -10.7703495 -5.346795559 2.011197366e-38
-36.04048157 -11.20775986 -5.347774506 2.011197366e-38
-35.99941635 -11.35389614 -5.348409653 2.011197366e-38
-35.95783234 -11.49990273 -5.34905529 2.011197366e-38
-35.90179443 -11.64129448 -5.347639561 2.011197366e-38
-35.84080887 -11.78093433 -5.345565796 2.011197366e-38
-35.78104401 -11.92087269 -5.343755245 2.011197366e-38
-35.78811264 -12.08330727 -5.352023602 2.011197366e-38
-35.59064865 -12.49674225 -5.344642162 2.011197366e-38
-33.63858032 -12.11599064 -5.065965652 2.029564465e-38
-35.36809158 -13.22292042 -5.350056648 2.011197366e-38
-35.32672501 -13.36955452 -5.351886749 2.011197366e-38
-35.30096436 -13.52229023 -5.3561759 2.011197366e-38
-31.33028984 -12.14593887 -4.761079788 2.047931564e-38
-35.15196609 -13.79032421 -5.350219727 2.011197366e-38
-35.12166214 -13.94159603 -5.354092121 2.011197366e-38
