# .PCD v0.7 - Point Cloud Data file format
VERSION 0.7
FIELDS x y z rgb
SIZE 4 4 4 4
TYPE F F F F
COUNT 1 1 1 1
WIDTH 889
HEIGHT 1
VIEWPOINT 0 0 0 1 0 0 0
POINTS 889
DATA ascii
29.68349648 23.4841156 -5.362925529 2.011197366e-38
29.60864639 23.61903572 -5.366511822 2.011197366e-38
29.50002098 23.72706604 -5.364069462 2.011197366e-38
29.39765549 23.83998871 -5.362838745 2.011197366e-38
29.05395317 23.95098495 -5.335094929 2.011197366e-38
28.81665421 24.5442028 -5.363306522 2.011197366e-38
28.59385681 24.75386429 -5.358709812 2.011197366e-38
28.56052399 24.92657471 -5.371199608 2.011197366e-38
28.42023849 25.00610542 -5.363676071 2.011197366e-38
28.32754326 25.12730408 -5.365203857 2.011197366e-38
28.13248825 25.3613472 -5.366706371 2.011197366e-38
25.47982407 23.15634155 -4.878385544 2.038748015e-38
25.31087875 23.18924904 -4.863850594 2.038748015e-38
25.00409126 23.28071022 -4.840709686 2.038748015e-38
24.84122467 23.31618309 -4.827284813 2.038748015e-38
24.53143883 23.21162033 -4.785181522 2.038748015e-38
24.40174675 23.27552986 -4.778095722 2.047931564e-38
24.21291161 23.28202438 -4.759412766 2.047931564e-38
23.96752357 23.23220634 -4.729491234 2.047931564e-38
23.92463875 23.3779068 -4.739536285 2.047931564e-38
23.9272995 23.75954628 -4.777751923 2.047931564e-38
23.94336319 24.16088295 -4.819590092 2.038748015e-38
24.00747681 24.42117119 -4.852218628 2.038748015e-38
23.89171982 24.49968338 -4.848695278 2.038748015e-38
23.98540878 24.79436874 -4.887890816 2.038748015e-38
22.73797035 23.69473648 -4.653057575 2.047931564e-38
22.23507881 23.73716164 -4.608394146 2.057115114e-38
21.76460457 23.80386162 -4.57005167 2.057115114e-38
21.6675415 23.88985443 -4.569800377 2.057115114e-38
21.50472069 23.90270424 -4.555687904 2.057115114e-38
21.39296722 23.97160339 -4.552391052 2.057115114e-38
21.33322334 24.09897804 -4.560255527 2.057115114e-38
21.40596008 24.37792587 -4.596731186 2.057115114e-38
21.45149994 24.62874603 -4.627714634 2.047931564e-38
21.43224144 25.00980377 -4.666791916 2.047931564e-38
21.44433784 25.43499184 -4.713803291 2.047931564e-38
21.45121574 25.86225128 -4.760872841 2.047931564e-38
19.87651443 24.1607666 -4.432903767 2.066298664e-38
19.70862389 24.15392685 -4.417077065 2.066298664e-38
19.58724213 24.2031498 -4.411643982 2.066298664e-38
19.4542923 24.23747635 -4.403610706 2.066298664e-38
19.33836937 24.29245186 -4.399438858 2.066298664e-38
19.22365189 24.34858894 -4.395573139 2.066298664e-38
19.12098694 24.41975021 -4.394508839 2.066298664e-38
18.98901749 24.45308113 -4.386734486 2.066298664e-38
18.91646576 24.56286049 -4.39275074 2.066298664e-38
18.56190872 24.92136383 -4.402913094 2.066298664e-38
18.31482887 25.00680161 -4.391850948 2.066298664e-38
18.48335266 25.45090866 -4.456763268 2.066298664e-38
18.46678162 25.64427185 -4.477586269 2.057115114e-38
18.42483711 25.80413246 -4.492530823 2.057115114e-38
18.40941048 26.00295067 -4.514225483 2.057115114e-38
18.40444183 26.21876144 -4.53881216 2.057115114e-38
18.37726784 26.40514374 -4.558249474 2.057115114e-38
21.14349365 31.44637871 -5.369113922 2.011197366e-38
21.02683067 31.5459919 -5.371645451 2.011197366e-38
20.89819145 31.62777328 -5.371222973 2.011197366e-38
20.76514435 31.70276451 -5.369738579 2.011197366e-38
20.50396919 31.85993767 -5.368264675 2.011197366e-38
20.36774826 31.92961693 -5.366165161 2.011197366e-38
20.25404739 32.03465271 -5.370090961 2.011197366e-38
19.88637543 32.30929184 -5.375534058 2.011197366e-38
19.72994423 32.34571838 -5.368354797 2.011197366e-38
19.61705017 32.45337677 -5.373091221 2.011197366e-38
19.47592163 32.51442337 -5.370193005 2.011197366e-38
19.35346413 32.6066246 -5.372528076 2.011197366e-38
19.22137833 32.68271255 -5.372289181 2.011197366e-38
18.98569107 32.88415909 -5.380136013 2.011197366e-38
18.69519234 32.9907341 -5.372807503 2.011197366e-38
18.55437279 33.05129242 -5.370479107 2.011197366e-38
18.42897606 33.13933182 -5.372702599 2.011197366e-38
18.28380585 33.19170761 -5.369234085 2.011197366e-38
18.16341591 33.28912354 -5.373137474 2.011197366e-38
18.03073692 33.36424255 -5.373520851 2.011197366e-38
17.63850594 33.60106277 -5.377009392 2.011197366e-38
17.35508347 33.71710587 -5.373075962 2.011197366e-38
17.19229698 33.73341751 -5.364618301 2.011197366e-38
17.08505058 33.85872269 -5.373580456 2.011197366e-38
16.95060349 33.93074417 -5.374152184 2.011197366e-38
16.80666161 33.98365784 -5.371788979 2.011197366e-38
16.68802643 34.08791733 -5.377621174 2.011197366e-38
16.55998421 34.17357635 -5.380588531 2.011197366e-38
16.39716911 34.18711853 -5.372298717 2.011197366e-38
16.27039909 34.27545166 -5.375860214 2.011197366e-38
16.13674545 34.3496933 -5.37728548 2.011197366e-38
15.98178768 34.37826538 -5.371656895 2.011197366e-38
15.85292244 34.46280289 -5.374864101 2.011197366e-38
15.69968414 34.49424362 -5.36988163 2.011197366e-38
15.58120537 34.60219193 -5.37689209 2.011197366e-38
15.43962669 34.65924835 -5.376070499 2.011197366e-38
15.30173492 34.72460556 -5.376623631 2.011197366e-38
15.14241028 34.7408371 -5.369668484 2.011197366e-38
14.87003803 34.87883377 -5.372347355 2.011197366e-38
14.72764874 34.93346024 -5.371597767 2.011197366e-38
14.59212589 35.00442886 -5.373446941 2.011197366e-38
14.32163525 35.14863968 -5.377734184 2.011197366e-38
14.156497 35.14699173 -5.368731976 2.011197366e-38
13.89755726 35.32092667 -5.378057957 2.011197366e-38
13.74147701 35.34054184 -5.372590065 2.011197366e-38
13.31038761 35.49327469 -5.371015549 2.011197366e-38
13.170681 35.55482101 -5.372273445 2.011197366e-38
13.03475857 35.62692642 -5.37520647 2.011197366e-38
12.88934898 35.67324829 -5.374336243 2.011197366e-38
12.61236382 35.80476379 -5.378696442 2.011197366e-38
12.15754318 35.88894272 -5.368929863 2.011197366e-38
11.88856602 36.04610062 -5.37796402 2.011197366e-38
11.74446583 36.09631729 -5.378368378 2.011197366e-38
11.59425735 36.12766266 -5.376050949 2.011197366e-38
11.29603577 36.1960144 -5.372534752 2.011197366e-38
11.16540623 36.28979492 -5.379747868 2.011197366e-38
11.01093674 36.30635834 -5.375598431 2.011197366e-38
10.864748 36.34981155 -5.375522614 2.011197366e-38
10.42597198 36.47951126 -5.375716209 2.011197366e-38
10.28173447 36.52999496 -5.37702179 2.011197366e-38
10.12858677 36.54861069 -5.373724937 2.011197366e-38
8.674091339 31.79621124 -4.669817448 2.047931564e-38
8.518246651 31.72667503 -4.654539108 2.047931564e-38
8.3829813 31.73168564 -4.650291443 2.047931564e-38
8.244462013 31.72319984 -4.644153118 2.047931564e-38
7.83110714 31.69814873 -4.6263237 2.047931564e-38
7.692379475 31.68313026 -4.619581223 2.057115114e-38
7.563412666 31.70729446 -4.618632793 2.057115114e-38
7.426629066 31.69789886 -4.612879276 2.057115114e-38
7.030660152 31.72576141 -4.604258537 2.057115114e-38
6.913793087 31.80312538 -4.611415863 2.057115114e-38
6.813771725 31.9614315 -4.630355358 2.047931564e-38
6.776653767 32.42597961 -4.693676949 2.047931564e-38
6.809675217 33.25100327 -4.809099674 2.038748015e-38
6.799783707 33.89536285 -4.898298264 2.038748015e-38
6.728301525 35.77067566 -5.157202721 2.020380915e-38
6.867120743 37.3341713 -5.378595352 2.011197366e-38
6.263020039 37.42244339 -5.376106739 2.011197366e-38
6.115316391 37.46430588 -5.378544331 2.011197366e-38
5.818409443 37.54138947 -5.382722378 2.011197366e-38
5.658521175 37.50522614 -5.374231815 2.011197366e-38
5.503642082 37.49993515 -5.370260715 2.011197366e-38
5.357915401 37.55735779 -5.375355721 2.011197366e-38
4.90661335 37.63481522 -5.377576351 2.011197366e-38
4.75425148 37.64584351 -5.376384735 2.011197366e-38
4.606236458 37.6921463 -5.380308628 2.011197366e-38
3.996641159 37.73374939 -5.376373768 2.011197366e-38
3.845156193 37.75172806 -5.376688957 2.011197366e-38
3.696951389 37.80348206 -5.381903172 2.011197366e-38
3.546103716 37.83047104 -5.38367033 2.011197366e-38
3.391112804 37.81212234 -5.379076958 2.011197366e-38
3.238560438 37.81910324 -5.378178596 2.011197366e-38
2.936975956 37.87756348 -5.382953644 2.011197366e-38
2.782017231 37.8525238 -5.377765656 2.011197366e-38
2.630363941 37.87102127 -5.378844738 2.011197366e-38
2.478088856 37.88129425 -5.378848553 2.011197366e-38
2.325986624 37.89402771 -5.379284859 2.011197366e-38
1.867610693 37.89458847 -5.375776768 2.011197366e-38
1.41079998 37.92274857 -5.376966953 2.011197366e-38
1.105549455 37.92258835 -5.375509739 2.011197366e-38
0.9542068243 37.9704895 -5.38171196 2.011197366e-38
0.8008291125 37.93894577 -5.376742363 2.011197366e-38
0.6491946578 37.99452209 -5.384204865 2.011197366e-38
0.3433356881 37.95655823 -5.378260612 2.011197366e-38
0.1907972842 37.96997833 -5.380009174 2.011197366e-38
0.03818198666 37.98804474 -5.382503033 2.011197366e-38
-0.1144580171 37.96547318 -5.379328251 2.011197366e-38
-0.2668263912 37.9282341 -5.374159813 2.011197366e-38
-0.5721673369 37.95330048 -5.37818718 2.011197366e-38
-0.7245740891 37.94159317 -5.376898289 2.011197366e-38
-1.031654358 38.01088333 -5.387721062 2.011197366e-38
-1.186819434 38.0822525 -5.398468018 2.011197366e-38
-1.34066987 38.09930801 -5.401602745 2.011197366e-38
-1.7995193 38.06948471 -5.400063515 2.011197366e-38
-1.954757929 38.10515594 -5.406194687 2.011197366e-38
-2.259578705 38.06335831 -5.402667999 2.011197366e-38
-2.867255688 37.96842194 -5.395040989 2.011197366e-38
-3.02325201 37.99895096 -5.401061058 2.011197366e-38
-0.7415343523 8.86924839 -1.261059761 2.259153205e-38
-0.8747162819 8.762664795 -1.24774313 2.259153205e-38
-0.9493167996 8.79407692 -1.253263235 2.259153205e-38
-0.9864966273 8.806575775 -1.255607486 2.259153205e-38
-4.67884016 38.93617249 -5.556530476 2.002013816e-38
-4.833818436 38.90497208 -5.554806709 2.002013816e-38
-4.995200157 38.92424393 -5.560380459 2.002013816e-38
-5.144938946 38.85334015 -5.553161144 2.002013816e-38
-5.303982258 38.85363007 -5.556205273 2.002013816e-38
-5.609025478 38.76024628 -5.549120426 2.002013816e-38
-5.768398762 38.76159286 -5.552588463 2.002013816e-38
-5.925596237 38.74730682 -5.553909302 2.002013816e-38
-6.083520412 38.73731613 -5.555937767 2.002013816e-38
-6.398458004 38.70942688 -5.559136868 2.002013816e-38
-6.547781467 38.64667511 -5.553858757 2.002013816e-38
-6.707679749 38.64650726 -5.557665348 2.002013816e-38
-7.167600632 38.53245163 -5.553291321 2.002013816e-38
-7.321890831 38.50031281 -5.55286932 2.002013816e-38
-7.478244781 38.47914124 -5.554078102 2.002013816e-38
-7.636163712 38.46533585 -5.556490898 2.002013816e-38
-7.789028645 38.42586136 -5.555278778 2.002013816e-38
-8.094457626 38.3466568 -5.553041935 2.002013816e-38
-8.557350159 38.25089264 -5.553715229 2.002013816e-38
-8.867248535 38.19219971 -5.555366516 2.002013816e-38
-9.024232864 38.17122269 -5.557545185 2.002013816e-38
-9.176698685 38.13074112 -5.556978703 2.002013816e-38
-9.332540512 38.10434723 -5.558554649 2.002013816e-38
-9.482304573 38.05316162 -5.556602955 2.002013816e-38
-9.632043839 38.00224304 -5.554778099 2.002013816e-38
-9.781195641 37.94917679 -5.552734375 2.002013816e-38
-10.23922729 37.83281326 -5.55336237 2.002013816e-38
-10.40363121 37.83633423 -5.559978485 2.002013816e-38
-10.5492115 37.77124023 -5.556595325 2.002013816e-38
-10.99874115 37.62347412 -5.553966522 2.002013816e-38
-11.15116692 37.58325577 -5.554604053 2.002013816e-38
-11.30979156 37.56352234 -5.558359623 2.002013816e-38
-11.44640064 37.47085953 -5.551412582 2.002013816e-38
-11.60005188 37.43461609 -5.55290699 2.002013816e-38
-11.748703 37.38217545 -5.552088261 2.002013816e-38
-11.90240097 37.34565353 -5.553726673 2.002013816e-38
-12.05982208 37.32039642 -5.557135582 2.002013816e-38
-12.20024681 37.24263763 -5.552814484 2.002013816e-38
-12.36415577 37.23628235 -5.559232235 2.002013816e-38
-12.49405384 37.12781143 -5.550489902 2.002013816e-38
-13.10166836 36.95665741 -5.555685043 2.002013816e-38
-13.24652863 36.89366531 -5.554173946 2.002013816e-38
-13.40514469 36.86876678 -5.558493614 2.002013816e-38
-13.5507679 36.80787277 -5.557479858 2.002013816e-38
-13.67929649 36.70121765 -5.549634457 2.002013816e-38
-14.27679539 36.49991608 -5.553194523 2.002013816e-38
-14.42785931 36.45350647 -5.55491209 2.002013816e-38
-14.56257915 36.36594391 -5.550445557 2.002013816e-38
-14.72444725 36.34611893 -5.556409836 2.002013816e-38
-14.86123943 36.26419449 -5.55297327 2.002013816e-38
-15.15780926 36.1566925 -5.554988861 2.002013816e-38
-15.30194378 36.09325409 -5.554605484 2.002013816e-38
-15.46587181 36.07492828 -5.561393261 2.002013816e-38
-16.03443146 35.80104828 -5.55812645 2.002013816e-38
-16.16917229 35.71603012 -5.555010796 2.002013816e-38
-16.5935936 35.50748825 -5.553300381 2.002013816e-38
-16.73452187 35.43688965 -5.552736282 2.002013816e-38
-17.02243042 35.30858994 -5.553897381 2.002013816e-38
-17.44974518 35.10624313 -5.554769039 2.002013816e-38
-17.60519218 35.0646019 -5.559333801 2.002013816e-38
-17.8598156 34.86977386 -5.551031113 2.002013816e-38
-18.00941277 34.81617737 -5.553979874 2.002013816e-38
-18.28935432 34.67143631 -5.554167271 2.002013816e-38
-18.43136215 34.60281754 -5.555000782 2.002013816e-38
-18.57790184 34.54258728 -5.557271481 2.002013816e-38
-18.69016647 34.41891479 -5.549420357 2.002013816e-38
-18.9860363 34.30315781 -5.555198193 2.002013816e-38
-19.41395569 34.09916687 -5.559669495 2.002013816e-38
-19.51861382 33.6508255 -5.511980534 2.002013816e-38
-19.5192337 33.34234619 -5.474259377 2.002013816e-38
-19.50821877 33.01840973 -5.433905125 2.002013816e-38
-19.57406425 32.82777405 -5.415438652 2.011197366e-38
-19.6661644 32.68284225 -5.404528141 2.011197366e-38
-19.78764915 32.58757401 -5.40186882 2.011197366e-38
-19.92217445 32.5136528 -5.402864933 2.011197366e-38
-20.0609951 32.44672394 -5.405098915 2.011197366e-38
-20.18869209 32.36170959 -5.404411793 2.011197366e-38
-20.30884552 32.26473618 -5.401808262 2.011197366e-38
-20.44162369 32.1879425 -5.402665138 2.011197366e-38
-20.57453728 32.11126709 -5.403635025 2.011197366e-38
-20.82047081 31.92703819 -5.40062952 2.011197366e-38
-20.94908142 31.84377289 -5.400744915 2.011197366e-38
-21.20570755 31.67622375 -5.401070595 2.011197366e-38
-21.35130501 31.61804008 -5.405739307 2.011197366e-38
-21.47725677 31.53050804 -5.405492306 2.011197366e-38
-21.59647942 31.43319511 -5.403650761 2.011197366e-38
-21.73560905 31.36483574 -5.406872749 2.011197366e-38
-22.00091743 31.20868492 -5.410274982 2.011197366e-38
-21.73877907 30.31628036 -5.285699368 2.011197366e-38
-22.33310318 30.88224792 -5.399983883 2.011197366e-38
-22.45960236 30.7957058 -5.400593758 2.011197366e-38
-22.72367287 30.6373291 -5.40468502 2.011197366e-38
-21.58583069 28.86001205 -5.106420517 2.020380915e-38
-23.11075401 30.13423157 -5.38079977 2.011197366e-38
-21.63067818 27.28436279 -4.933400631 2.038748015e-38
-23.64993286 29.58543968 -5.366776466 2.011197366e-38
-21.71809959 26.72613335 -4.879469872 2.038748015e-38
-21.70418549 26.49072647 -4.852380753 2.038748015e-38
-21.57770729 25.9086113 -4.777377605 2.047931564e-38
-21.64873505 25.78242302 -4.770118713 2.047931564e-38
-21.65646172 25.58209419 -4.749121666 2.047931564e-38
-24.59983253 28.82321358 -5.369128227 2.011197366e-38
-24.70600891 28.71308517 -5.367068291 2.011197366e-38
-21.89184189 25.03256035 -4.711850643 2.047931564e-38
-21.69518852 24.6073494 -4.648195267 2.047931564e-38
-21.63535881 24.34152031 -4.614373207 2.057115114e-38
-25.3998127 28.11828423 -5.368864536 2.011197366e-38
-25.49464989 27.9962616 -5.365077972 2.011197366e-38
-25.60876465 27.89539909 -5.365448952 2.011197366e-38
-25.71485519 27.78593063 -5.364232063 2.011197366e-38
-21.63654518 22.82078552 -4.455739498 2.066298664e-38
-26.17455482 27.38589668 -5.367567539 2.011197366e-38
-26.26013565 27.25519753 -5.362600803 2.011197366e-38
-26.4086132 27.18972015 -5.370560646 2.011197366e-38
-26.49513245 27.06032181 -5.365993977 2.011197366e-38
-26.58532524 26.93494415 -5.362284184 2.011197366e-38
-26.81181526 26.73112106 -5.36444664 2.011197366e-38
-27.13713646 26.4105835 -5.365413189 2.011197366e-38
-27.24518204 26.3032856 -5.365825653 2.011197366e-38
-27.44408607 26.07229805 -5.363541126 2.011197366e-38
-27.54951668 25.96256065 -5.363706112 2.011197366e-38
-27.63921738 25.83810425 -5.360904217 2.011197366e-38
-27.85670853 25.62486267 -5.362954617 2.011197366e-38
-27.96245384 25.51547241 -5.36352396 2.011197366e-38
-28.0722065 25.40954208 -5.364940166 2.011197366e-38
-28.17542458 25.29755783 -5.365187168 2.011197366e-38
-28.47766495 24.95526886 -5.365038872 2.011197366e-38
-28.58153725 24.84387398 -5.365749359 2.011197366e-38
-28.63690567 24.69062424 -5.357468128 2.011197366e-38
-28.74927902 24.58669662 -5.35995388 2.011197366e-38
-28.85234261 24.47471619 -5.360783577 2.011197366e-38
-29.23371124 24.0007019 -5.359236717 2.011197366e-38
-29.17224884 23.7545681 -5.330417156 2.011197366e-38
-28.87774277 23.32233047 -5.259435177 2.011197366e-38
-28.26370049 22.45335197 -5.114554405 2.020380915e-38
-27.93610191 22.0105114 -5.039220333 2.029564465e-38
-27.89792633 21.79925156 -5.016486645 2.029564465e-38
-27.91322136 21.63102531 -5.003559113 2.029564465e-38
-27.93658829 21.46995354 -4.992237091 2.029564465e-38
-28.3202076 21.2264843 -5.014678478 2.029564465e-38
-28.35829163 20.90107346 -4.991504192 2.029564465e-38
-28.35318756 20.72193909 -4.975902557 2.029564465e-38
-28.36166954 20.3803463 -4.9484725 2.029564465e-38
-28.3649826 20.21033287 -4.934837818 2.038748015e-38
-28.36169815 19.19387817 -4.852298737 2.038748015e-38
-28.36686325 19.03155899 -4.840051651 2.038748015e-38
-28.37500191 18.70797348 -4.81562233 2.038748015e-38
-28.36876678 18.54068375 -4.801877975 2.038748015e-38
-28.36582756 18.37646103 -4.788837433 2.038748015e-38
-28.39477921 18.07278252 -4.769039154 2.047931564e-38
-28.38905334 17.90919304 -4.755946636 2.047931564e-38
-28.36190414 17.73305893 -4.739416599 2.047931564e-38
-28.37849236 17.42767525 -4.718624115 2.047931564e-38
-28.35323334 17.25557899 -4.702854156 2.047931564e-38
-27.7480011 15.98316002 -4.537186623 2.057115114e-38
-27.91713905 15.78305054 -4.543947697 2.057115114e-38
-28.23801613 15.66620064 -4.575525761 2.057115114e-38
-28.3724041 15.59192848 -4.587107658 2.057115114e-38
-28.40810204 15.46318054 -4.582791805 2.057115114e-38
-28.46278763 15.34496117 -4.581625462 2.057115114e-38
-28.7493248 15.05481434 -4.598187447 2.057115114e-38
-30.3597374 15.58837605 -4.835553646 2.038748015e-38
-31.89949989 15.57693291 -5.029908657 2.029564465e-38
-32.18669891 15.55725861 -5.065290928 2.029564465e-38
-32.5380249 15.56602287 -5.110692501 2.020380915e-38
-32.85997772 15.55805492 -5.151397705 2.020380915e-38
-33.7430191 15.15354919 -5.241014004 2.020380915e-38
-34.0365448 15.12125206 -5.27711916 2.011197366e-38
-34.66812515 15.06928825 -5.356087208 2.011197366e-38
-34.81842422 14.63796139 -5.351644039 2.011197366e-38
-34.91035843 14.51174641 -5.356764793 2.011197366e-38
-22.00387192 8.734459877 -3.35436058 2.130583511e-38
-22.04945374 8.65011692 -3.35598278 2.130583511e-38
-35.2710495 13.51082325 -5.351636887 2.011197366e-38
-35.32004547 13.36702824 -5.350873947 2.011197366e-38
-35.60775375 12.66375351 -5.354813099 2.011197366e-38
-35.73579407 12.22586155 -5.351504326 2.011197366e-38
-35.88399887 11.79512501 -5.352007866 2.011197366e-38
-35.94467163 11.65518093 -5.354025841 2.011197366e-38
-35.99766922 11.51267719 -5.354981899 2.011197366e-38
-36.05598831 11.21257305 -5.350074291 2.011197366e-38
-36.12961578 10.91769218 -5.347802162 2.011197366e-38
-36.24571609 10.63552666 -5.352157593 2.011197366e-38
-30.98572922 8.956967354 -4.570090771 2.057115114e-38
-36.33281708 10.34454918 -5.352563858 2.011197366e-38
-32.53627014 8.840852737 -4.7771945 2.047931564e-38
-33.96226501 8.935750961 -4.975850105 2.029564465e-38
-36.54473114 9.458313942 -5.348612785 2.011197366e-38
-35.47399521 9.029192924 -5.186547756 2.020380915e-38
-36.6869278 9.024495125 -5.353106499 2.011197366e-38
-36.69342422 8.869812965 -5.348807335 2.011197366e-38
-36.71773529 8.719609261 -5.347204685 2.011197366e-38
-36.74326706 8.569787979 -5.345858097 2.011197366e-38
-36.82485199 8.277189255 -5.347871304 2.011197366e-38
-36.89448929 7.981799603 -5.348491669 2.011197366e-38
-36.95513916 7.684432507 -5.348155022 2.011197366e-38
-36.98975372 7.536636829 -5.348737717 2.011197366e-38
-37.01767731 7.387447357 -5.348434925 2.011197366e-38
-37.0640564 7.241909504 -5.350888729 2.011197366e-38
-37.0822258 7.090825081 -5.349353313 2.011197366e-38
-37.07500458 6.935056686 -5.344245911 2.011197366e-38
-37.12936783 6.790872097 -5.348104477 2.011197366e-38
-37.16250229 6.642663479 -5.348988056 2.011197366e-38
-37.17461777 6.490707874 -5.346932411 2.011197366e-38
-38.30094147 6.370487213 -5.501390457 2.002013816e-38
-38.32555389 6.216351986 -5.501291752 2.002013816e-38
-38.3452301 6.061451435 -5.500573158 2.002013816e-38
-38.36724854 5.906957626 -5.500281334 2.002013816e-38
-38.38552475 5.751868725 -5.499541759 2.002013816e-38
-38.41266632 5.598153114 -5.500162125 2.002013816e-38
-38.44119644 5.28703928 -5.497982025 2.002013816e-38
-38.48062134 4.977594852 -5.497720718 2.002013816e-38
-38.53013992 4.826578617 -5.501977921 2.002013816e-38
-38.53420639 4.669838905 -5.499833584 2.002013816e-38
-38.52813721 4.512019634 -5.496333599 2.002013816e-38
-38.58964157 4.362020969 -5.502561569 2.002013816e-38
-38.60567093 3.892940283 -5.497753143 2.002013816e-38
-38.61242676 3.736890078 -5.496531487 2.002013816e-38
-38.65726852 3.584430695 -5.50082016 2.002013816e-38
-38.65137863 3.427229881 -5.49797678 2.002013816e-38
-38.70802307 3.118807316 -5.502289295 2.002013816e-38
-38.6896019 2.960820675 -5.497933388 2.002013816e-38
-38.70579529 2.805617094 -5.498587608 2.002013816e-38
-38.72017288 2.49387908 -5.49760437 2.002013816e-38
-38.75017929 2.339439869 -5.50048542 2.002013816e-38
-38.76316833 2.183878899 -5.501038074 2.002013816e-38
-38.75951004 2.02737546 -5.499318123 2.002013816e-38
-38.79254913 1.872781277 -5.502892494 2.002013816e-38
-38.80381775 1.404512525 -5.501686573 2.002013816e-38
-38.81383514 1.248688102 -5.502352238 2.002013816e-38
-38.77915573 1.091516852 -5.496770382 2.002013816e-38
-38.80420685 0.9361281395 -5.499743462 2.002013816e-38
-38.81425476 0.7802670598 -5.500678062 2.002013816e-38
-38.80244064 0.6239674687 -5.498603344 2.002013816e-38
-38.78597641 0.3118430674 -5.495737076 2.002013816e-38
-38.82006073 0.1560572386 -5.500433922 2.002013816e-38
-33.33962631 9.752026017e-06 -5.492341042 2.047931564e-38
-33.40183258 -0.1342830956 -5.502636909 2.047931564e-38
-33.41656494 -0.4029943347 -5.505419731 2.047931564e-38
-33.38274384 -0.5368024111 -5.500156879 2.047931564e-38
-33.36068344 -0.6706109643 -5.496923447 2.047931564e-38
-33.38917923 -0.9397949576 -5.502687931 2.047931564e-38
-33.40245819 -1.343480945 -5.507143974 2.047931564e-38
-33.34070969 -1.475270629 -5.497896671 2.047931564e-38
-33.35563278 -1.61031127 -5.50138092 2.047931564e-38
-33.35660934 -1.879251361 -5.503856182 2.047931564e-38
-33.29898071 -2.27918601 -5.498484135 2.047931564e-38
-33.25642776 -2.679549932 -5.496392727 2.047931564e-38
-33.21963882 -2.81103301 -5.492135048 2.047931564e-38
-33.23338318 -3.081503391 -5.498326302 2.047931564e-38
-33.22101974 -3.34995079 -5.500560284 2.047931564e-38
-33.17964172 -3.480580091 -5.495981693 2.047931564e-38
-33.21886826 -3.619758129 -5.504845142 2.047931564e-38
-33.1423111 -3.7462852 -5.494608879 2.047931564e-38
-33.1260376 -3.879364014 -5.494452 2.047931564e-38
-33.15455627 -4.017884254 -5.50181675 2.047931564e-38
-33.10429382 -4.417511463 -5.501917362 2.047931564e-38
-33.03679276 -4.679135323 -5.496769905 2.047931564e-38
-33.01272202 -4.946796894 -5.499207497 2.047931564e-38
-32.9665184 -5.211203098 -5.49831295 2.047931564e-38
-32.93934631 -5.478694439 -5.500949383 2.047931564e-38
-32.91607666 -5.610900402 -5.500787258 2.047931564e-38
-32.9052124 -5.745283127 -5.502787113 2.047931564e-38
-32.8649292 -5.87447834 -5.499955177 2.047931564e-38
-32.87566376 -6.012868881 -5.505752087 2.047931564e-38
-32.7964859 -6.271314144 -5.500758648 2.047931564e-38
-32.73612213 -6.532994747 -5.499265671 2.047931564e-38
-32.73350143 -6.669414997 -5.503284454 2.047931564e-38
-32.68983459 -6.797514439 -5.500494003 2.047931564e-38
-32.64011002 -6.92416048 -5.496764183 2.047931564e-38
-32.58047104 -7.323173523 -5.501195431 2.047931564e-38
-32.5445137 -7.452657223 -5.500137806 2.047931564e-38
-32.46303177 -7.709184647 -5.496665001 2.047931564e-38
-32.42824554 -7.976912975 -5.501454353 2.047931564e-38
-32.39321136 -8.106513023 -5.500997543 2.047931564e-38
-32.34668732 -8.233189583 -5.498673916 2.047931564e-38
-32.27809525 -8.492643356 -5.498443127 2.047931564e-38
-32.24501419 -8.622673988 -5.498666286 2.047931564e-38
-32.21685791 -8.754051208 -5.499821186 2.047931564e-38
-32.13673401 -9.010365486 -5.498333454 2.047931564e-38
-32.12174606 -9.145599365 -5.50201416 2.047931564e-38
-32.08471298 -9.274627686 -5.502009869 2.047931564e-38
-32.05503845 -9.40583992 -5.503359795 2.047931564e-38
-30.94161797 -9.75869751 -5.344806194 2.057115114e-38
-30.77788353 -10.25400829 -5.344314098 2.057115114e-38
-30.78157806 -10.39292336 -5.35216856 2.057115114e-38
-30.71875191 -10.50944805 -5.348546982 2.057115114e-38
-30.58491135 -10.87741089 -5.347695827 2.057115114e-38
-30.2984848 -11.60604954 -5.345016479 2.057115114e-38
-30.11369133 -12.09402943 -5.346033573 2.057115114e-38
-29.99485397 -12.32724571 -5.342358589 2.057115114e-38
-29.98555374 -12.46456528 -5.349584579 2.057115114e-38
-29.93210602 -12.58370876 -5.349031448 2.057115114e-38
-29.8880291 -12.70678329 -5.350238323 2.057115114e-38
-29.83154488 -12.82462025 -5.349313259 2.057115114e-38
-29.75725555 -12.93466473 -5.345272541 2.057115114e-38
-29.73674774 -13.06812382 -5.350982666 2.057115114e-38
-29.6824894 -13.18688774 -5.35071373 2.057115114e-38
-29.61556053 -13.29998398 -5.348245621 2.057115114e-38
-29.51313972 -13.39679909 -5.339429379 2.057115114e-38
-29.54168129 -13.55324841 -5.354408264 2.057115114e-38
-29.44777298 -13.6537199 -5.34729147 2.057115114e-38
-29.34325981 -13.89297485 -5.348424911 2.057115114e-38
-29.20806122 -14.11753082 -5.344297886 2.057115114e-38
-29.09801483 -14.35409355 -5.345107079 2.057115114e-38
-29.00335312 -14.59846687 -5.349104404 2.057115114e-38
-28.92417717 -14.70464706 -5.345361233 2.057115114e-38
-28.7485199 -15.05438423 -5.346064568 2.057115114e-38
-28.69005775 -15.17101192 -5.346488953 2.057115114e-38
-22.69927216 -12.1201725 -4.239113808 2.112216412e-38
-28.46307945 -15.64174175 -5.350376129 2.057115114e-38
-28.41041374 -15.76182461 -5.352342129 2.057115114e-38
-28.21810532 -16.10322762 -5.352313995 2.057115114e-38
-28.17043877 -16.22647858 -5.355600834 2.057115114e-38
-28.00663185 -16.43341637 -5.349406242 2.057115114e-38
-24.45161629 -14.74670506 -4.704009056 2.084665763e-38
-24.21060944 -14.73438835 -4.669001579 2.084665763e-38
-23.9979496 -14.73751163 -4.639378071 2.084665763e-38
-23.89067459 -14.80420876 -4.630106449 2.093849312e-38
-23.82792282 -14.89821911 -4.629513741 2.093849312e-38
-23.73914909 -14.97579479 -4.623927116 2.093849312e-38
-23.63217354 -15.30981922 -4.638719082 2.093849312e-38
-23.62648582 -15.44130993 -4.649749279 2.084665763e-38
-23.68302345 -15.61449146 -4.673190117 2.084665763e-38
-27.07146835 -18.0050869 -5.356044292 2.057115114e-38
-26.93366051 -18.22743988 -5.357600689 2.057115114e-38
-26.60743713 -18.63739777 -5.35163641 2.057115114e-38
-26.53363419 -18.74513245 -5.351903439 2.057115114e-38
-26.31746864 -19.0723362 -5.354310036 2.057115114e-38
-26.16621971 -19.28544617 -5.354907513 2.057115114e-38
-26.08328247 -19.38661194 -5.353842258 2.057115114e-38
-26.00736427 -19.49296188 -5.354299068 2.057115114e-38
-25.90492439 -19.579319 -5.349371433 2.057115114e-38
-25.83927917 -19.69340134 -5.352119446 2.057115114e-38
-25.78365517 -19.81537247 -5.357054234 2.057115114e-38
-25.46858788 -20.23283768 -5.358499527 2.057115114e-38
-25.30495262 -20.43685341 -5.35847044 2.057115114e-38
-25.20835304 -20.52680397 -5.355445385 2.057115114e-38
-25.04722023 -20.73273659 -5.356455803 2.057115114e-38
-24.69937134 -21.1231842 -5.354016304 2.057115114e-38
-24.07187843 -20.92393112 -5.254292488 2.057115114e-38
-23.94701385 -20.98500633 -5.245409012 2.057115114e-38
-24.37805176 -21.53702164 -5.358751297 2.057115114e-38
-24.05348587 -22.12636566 -5.384089947 2.047931564e-38
-23.94848442 -22.20817184 -5.380526543 2.047931564e-38
-23.83625031 -22.28296471 -5.375392437 2.047931564e-38
-23.77376938 -22.40431595 -5.381567001 2.047931564e-38
-23.39953613 -22.95692062 -5.400226593 2.047931564e-38
-23.31036949 -23.05410957 -5.400994778 2.047931564e-38
-23.2355423 -23.16555405 -5.40518713 2.047931564e-38
-22.85791588 -23.53399467 -5.404685497 2.047931564e-38
-22.49500275 -23.918293 -5.409126282 2.047931564e-38
-22.3506279 -23.95699692 -5.39752388 2.047931564e-38
-22.27674675 -24.07089806 -5.402997971 2.047931564e-38
-22.08069229 -24.24726868 -5.402559757 2.047931564e-38
-21.88491058 -24.42384338 -5.402525902 2.047931564e-38
-21.78736305 -24.51255226 -5.402729511 2.047931564e-38
-21.66228294 -24.57003021 -5.396159649 2.047931564e-38
-21.60007095 -24.69892311 -5.405353546 2.047931564e-38
-21.27693939 -24.92986107 -5.399342537 2.047931564e-38
-21.17295074 -25.01091957 -5.398420811 2.047931564e-38
-21.07811165 -25.10282898 -5.399926186 2.047931564e-38
-20.97686195 -25.18718719 -5.399886131 2.047931564e-38
-20.76821327 -25.34832954 -5.398462296 2.047931564e-38
-20.6887722 -25.45946693 -5.404375076 2.047931564e-38
-20.58501434 -25.54089165 -5.404047966 2.047931564e-38
-20.37058449 -25.69494057 -5.401814938 2.047931564e-38
-20.17546082 -25.87342644 -5.405061722 2.047931564e-38
-19.93964005 -25.99937248 -5.397709846 2.047931564e-38
-19.64372253 -26.26346016 -5.402956963 2.047931564e-38
-19.45850182 -26.45667458 -5.410346031 2.047931564e-38
-19.32691002 -26.50030327 -5.403333664 2.047931564e-38
-19.1980629 -27.23280907 -5.489035606 2.047931564e-38
-19.15813637 -27.64513397 -5.540989876 2.047931564e-38
-19.09554863 -27.79316902 -5.555155754 2.038748015e-38
-18.99384689 -27.88462639 -5.558132172 2.038748015e-38
-18.85336494 -27.91894913 -5.54982233 2.038748015e-38
-18.62569046 -28.06571007 -5.54904747 2.038748015e-38
-18.41979218 -28.24571419 -5.55518198 2.038748015e-38
-18.19478035 -28.39710426 -5.55600071 2.038748015e-38
-18.07655334 -28.46390724 -5.554797649 2.038748015e-38
-17.8687706 -28.64292526 -5.561526775 2.038748015e-38
-17.74684143 -28.7038269 -5.559450626 2.038748015e-38
-17.4818058 -28.79007721 -5.548758507 2.038748015e-38
-17.37267876 -28.87138748 -5.550914288 2.038748015e-38
-17.15955925 -29.04474449 -5.557283401 2.038748015e-38
-17.03421593 -29.09734154 -5.554487228 2.038748015e-38
-16.92154694 -29.17344284 -5.555953979 2.038748015e-38
-16.80401993 -29.24099731 -5.555915833 2.038748015e-38
-16.68198967 -29.30069733 -5.554469109 2.038748015e-38
-16.57360458 -29.38440514 -5.557666302 2.038748015e-38
-16.46699524 -29.47159195 -5.561594963 2.038748015e-38
-16.33192253 -29.50784492 -5.555998325 2.038748015e-38
-16.22350121 -29.59209442 -5.559538364 2.038748015e-38
-16.09545326 -29.64059067 -5.556446552 2.038748015e-38
-15.96455956 -29.68349266 -5.552408695 2.038748015e-38
-15.50253582 -29.9698658 -5.558627129 2.038748015e-38
-15.35773373 -29.98466492 -5.54987812 2.038748015e-38
-15.23073673 -30.03365898 -5.547571659 2.038748015e-38
-15.13260651 -30.13989067 -5.555909157 2.038748015e-38
-14.89325809 -30.2676506 -5.557205677 2.038748015e-38
-14.75242805 -30.28814125 -5.550039291 2.038748015e-38
-14.50129032 -30.39076805 -5.547307014 2.038748015e-38
-14.40527344 -30.50449371 -5.557445526 2.038748015e-38
-14.27467251 -30.5454483 -5.554391861 2.038748015e-38
-14.02041626 -30.64103317 -5.551124573 2.038748015e-38
-13.92216492 -30.75253105 -5.561131001 2.038748015e-38
-13.77963638 -30.76633644 -5.553558826 2.038748015e-38
-13.53410053 -30.88132286 -5.554492474 2.038748015e-38
-13.16074181 -31.04236031 -5.554504395 2.038748015e-38
-12.78648758 -31.20140266 -5.554965973 2.038748015e-38
-12.66791439 -31.26972771 -5.558018684 2.038748015e-38
-12.53877354 -31.3120594 -5.556538582 2.038748015e-38
-12.29581833 -31.43538094 -5.560698509 2.038748015e-38
-11.64904022 -31.64215851 -5.554731846 2.038748015e-38
-11.39802551 -31.7452774 -5.556566238 2.038748015e-38
-11.2662735 -31.77947044 -5.554578781 2.038748015e-38
-11.13747978 -31.82174301 -5.554099083 2.038748015e-38
-11.01330662 -31.87738609 -5.556037426 2.038748015e-38
-10.89091969 -31.93850899 -5.559020519 2.038748015e-38
-10.75764942 -31.96781731 -5.556543827 2.038748015e-38
-10.49972916 -32.05153656 -5.556245327 2.038748015e-38
-10.37577534 -32.10891724 -5.558916092 2.038748015e-38
-10.1111784 -32.17184448 -5.555558681 2.038748015e-38
-9.97150898 -32.17910004 -5.549844742 2.038748015e-38
-9.723985672 -32.29639816 -5.556433201 2.038748015e-38
-9.595295906 -32.33946991 -5.557132244 2.038748015e-38
-9.350471497 -32.4692688 -5.566346645 2.038748015e-38
-8.946011543 -32.53528976 -5.55876112 2.038748015e-38
-8.548324585 -32.6229248 -5.555716991 2.038748015e-38
-8.285937309 -32.69127274 -5.555830479 2.038748015e-38
-8.02196312 -32.75328064 -5.555227757 2.038748015e-38
-7.752948761 -32.79378128 -5.551345825 2.038748015e-38
-7.62675333 -32.84923553 -5.555497169 2.038748015e-38
-7.49586916 -32.88498306 -5.556402683 2.038748015e-38
-7.22806406 -32.92937851 -5.553947926 2.038748015e-38
-7.099803925 -32.97803497 -5.557234764 2.038748015e-38
-6.969906807 -33.01913071 -5.559411049 2.038748015e-38
-6.431716442 -33.09274673 -5.553842068 2.038748015e-38
-6.168515205 -33.16153336 -5.556699276 2.038748015e-38
-5.769687653 -33.2421875 -5.558164597 2.038748015e-38
-5.637761593 -33.27547455 -5.5598979 2.038748015e-38
-5.501527309 -33.28316498 -5.557442188 2.038748015e-38
-5.096141815 -33.32361221 -5.553528786 2.038748015e-38
-4.693577766 -33.38025284 -5.553132057 2.038748015e-38
-4.564460278 -33.43629074 -5.559354305 2.038748015e-38
-3.891453743 -33.52064133 -5.559250355 2.038748015e-38
-3.755630732 -33.52664566 -5.557699203 2.038748015e-38
-3.622568369 -33.55776596 -5.560389996 2.038748015e-38
-3.12607646 -32.643116 -5.402202129 2.047931564e-38
-2.86398077 -32.67244339 -5.403071404 2.047931564e-38
-2.601441145 -32.69723892 -5.403538704 2.047931564e-38
-0.9908105135 -13.12038803 -2.167604208 2.222419007e-38
-0.8770245314 -13.00519371 -2.147329569 2.222419007e-38
-0.8261908293 -13.03156471 -2.15111804 2.222419007e-38
-0.7746180892 -13.04856491 -2.153393269 2.222419007e-38
-1.680693388 -32.76252747 -5.404369354 2.047931564e-38
-1.54865694 -32.76216507 -5.403236866 2.047931564e-38
-1.416568995 -32.75947952 -5.401808739 2.047931564e-38
-1.283747911 -32.73653793 -5.397129536 2.047931564e-38
-0.7585132122 -32.80922318 -5.406409264 2.047931564e-38
-0.6264721751 -32.80453873 -5.40517807 2.047931564e-38
-0.4948772192 -32.82526016 -5.408218861 2.047931564e-38
-0.3627128899 -32.80867386 -5.405204296 2.047931564e-38
-0.2306379378 -32.78337479 -5.400837898 2.047931564e-38
0.03291005269 -32.75374985 -5.395828247 2.047931564e-38
0.2967703938 -32.80843353 -5.405057907 2.047931564e-38
0.4288299382 -32.82110214 -5.407383442 2.047931564e-38
0.5605635643 -32.80665588 -5.405330658 2.047931564e-38
0.692032516 -32.78526306 -5.40222168 2.047931564e-38
0.8239265084 -32.7863121 -5.402895451 2.047931564e-38
0.9707034826 -29.25774193 -4.82254982 2.075482213e-38
0.9502990842 -25.54384232 -4.210982323 2.112216412e-38
0.9323991537 -22.61526489 -3.728784084 2.13976706e-38
0.919858098 -20.32560539 -3.351849318 2.15813416e-38
1.057819128 -18.44558144 -3.043703556 2.176501259e-38
1.131551981 -18.43448639 -3.042598724 2.176501259e-38
1.280658722 -18.43833542 -3.04483676 2.176501259e-38
2.624664307 -30.65023232 -5.067774296 2.066298664e-38
2.750833988 -30.67263985 -5.073266506 2.066298664e-38
2.869865656 -30.61599541 -5.065765858 2.066298664e-38
2.99619031 -30.63774681 -5.071316242 2.066298664e-38
3.241802216 -30.60680199 -5.070344448 2.066298664e-38
3.365660906 -30.60124588 -5.071623325 2.066298664e-38
3.48763442 -30.57865906 -5.070164204 2.066298664e-38
3.979805708 -30.52586937 -5.071367264 2.066298664e-38
4.101050854 -30.49890137 -5.069583893 2.066298664e-38
3.774140596 -25.71573448 -4.281803131 2.112216412e-38
3.76580596 -24.96007919 -4.158441544 2.112216412e-38
3.82098794 -24.65361404 -4.109905243 2.112216412e-38
3.920339584 -24.63976479 -4.110183239 2.112216412e-38
4.228188992 -24.65475655 -4.120901585 2.112216412e-38
4.332511425 -24.66748619 -4.125890732 2.112216412e-38
4.438921928 -24.69038582 -4.132697105 2.112216412e-38
4.534172058 -24.65079498 -4.129077435 2.112216412e-38
4.638439178 -24.66002655 -4.133706093 2.112216412e-38
5.806566715 -30.20145607 -5.066485405 2.066298664e-38
5.935210228 -30.21492195 -5.072706223 2.066298664e-38
6.054362297 -30.1796093 -5.070821762 2.066298664e-38
6.177574158 -30.16446877 -5.07240963 2.066298664e-38
6.419922352 -30.11397362 -5.072435856 2.066298664e-38
6.537626266 -30.07277107 -5.069880009 2.066298664e-38
6.650300503 -30.00934982 -5.063654423 2.066298664e-38
6.781449795 -30.02918243 -5.071558475 2.066298664e-38
3.687852144 -16.0301342 -2.70977211 2.194868358e-38
3.683831453 -15.44330025 -2.615487337 2.194868358e-38
3.681014061 -15.16119099 -2.570184708 2.194868358e-38
3.687365294 -14.92539024 -2.532703876 2.204051908e-38
3.685914278 -14.66607475 -2.491196632 2.204051908e-38
3.658358335 -14.31279469 -2.43368268 2.204051908e-38
3.681675673 -14.16640282 -2.411286831 2.204051908e-38
3.736610413 -14.14399052 -2.410008192 2.204051908e-38
3.797518969 -14.14406967 -2.412603855 2.204051908e-38
3.859024763 -14.14584064 -2.415514946 2.204051908e-38
3.919362307 -14.14282608 -2.417679071 2.204051908e-38
4.045489311 -14.15477276 -2.425204515 2.204051908e-38
4.161355019 -14.12924004 -2.426478148 2.204051908e-38
4.34914875 -14.13556957 -2.436411142 2.204051908e-38
4.418792725 -14.15916729 -2.443522692 2.204051908e-38
4.47121048 -14.12718105 -2.441076279 2.204051908e-38
4.591718197 -14.11253166 -2.444833517 2.204051908e-38
9.633695602 -29.20934105 -5.066883564 2.066298664e-38
9.880505562 -29.16716385 -5.073185444 2.066298664e-38
9.980989456 -29.07860184 -5.064719677 2.066298664e-38
10.23083401 -29.04392433 -5.072842598 2.066298664e-38
10.35299015 -29.01791763 -5.075529099 2.066298664e-38
10.46945286 -28.97579956 -5.075483799 2.066298664e-38
10.80023956 -28.79975128 -5.067092419 2.066298664e-38
10.91847038 -28.76279259 -5.068271637 2.066298664e-38
11.03186798 -28.71310806 -5.067291737 2.066298664e-38
11.15284443 -28.68306923 -5.069859028 2.066298664e-38
11.27507782 -28.65582657 -5.073014259 2.066298664e-38
11.49848938 -28.54784203 -5.070100307 2.066298664e-38
11.61756039 -28.51220703 -5.072024345 2.066298664e-38
11.73353863 -28.46877861 -5.072649002 2.066298664e-38
11.84940052 -28.42502213 -5.073301792 2.066298664e-38
11.10025597 -26.32939529 -4.707201958 2.084665763e-38
11.10741234 -26.05331039 -4.665770531 2.084665763e-38
11.11031532 -24.94071388 -4.497945309 2.093849312e-38
11.16106033 -24.52226067 -4.438526154 2.103032862e-38
11.28135586 -24.52462006 -4.44713974 2.103032862e-38
11.38532352 -24.49083519 -4.449272633 2.103032862e-38
11.51846027 -24.51892281 -4.462742805 2.093849312e-38
11.63556194 -24.51163673 -4.469890118 2.093849312e-38
11.76106834 -24.521101 -4.480213165 2.093849312e-38
11.87717247 -24.51000786 -4.486835957 2.093849312e-38
12.00309181 -24.51821518 -4.497134209 2.093849312e-38
13.63622952 -27.57288933 -5.067468166 2.066298664e-38
13.7387495 -27.50143433 -5.064443588 2.066298664e-38
13.97058201 -27.41201401 -5.068497658 2.066298664e-38
14.09702015 -27.38740349 -5.074384212 2.066298664e-38
14.18716908 -27.29233551 -5.067296505 2.066298664e-38
14.39671898 -27.15964317 -5.063988209 2.066298664e-38
15.05866814 -26.82428932 -5.067722321 2.066298664e-38
15.17602634 -26.78058815 -5.070949078 2.066298664e-38
15.26466465 -26.6863308 -5.064679623 2.066298664e-38
15.39342976 -26.66217422 -5.071798325 2.066298664e-38
15.49816227 -26.59609795 -5.071039677 2.066298664e-38
15.59848309 -26.52256775 -5.068935871 2.066298664e-38
15.82037258 -26.41160202 -5.071872234 2.066298664e-38
15.93797779 -26.3669014 -5.075553417 2.066298664e-38
16.12828064 -26.20352936 -5.068900585 2.066298664e-38
16.23368263 -26.13878822 -5.06896162 2.066298664e-38
16.44124222 -26.00416374 -5.068324089 2.066298664e-38
16.56361198 -25.96604729 -5.073830605 2.066298664e-38
16.77096558 -25.8306694 -5.073562145 2.066298664e-38
16.96461296 -25.6746006 -5.069534779 2.066298664e-38
17.28293991 -25.48280525 -5.072451591 2.066298664e-38
17.48309135 -25.33699226 -5.071245193 2.066298664e-38
11.03427219 -15.58569527 -3.145877123 2.167317709e-38
11.00465584 -15.4121151 -3.119757652 2.167317709e-38
10.99867725 -15.14476871 -3.083448172 2.167317709e-38
11.04185963 -15.07639217 -3.078549623 2.167317709e-38
11.01889992 -14.54842091 -3.006542444 2.176501259e-38
11.0048151 -14.05445004 -2.940639257 2.176501259e-38
11.04583454 -13.99059486 -2.93655324 2.176501259e-38
11.13247108 -13.98437119 -2.944616318 2.176501259e-38
11.32150841 -13.98951817 -2.964800835 2.176501259e-38
11.43313122 -14.01188087 -2.979241371 2.176501259e-38
11.50816059 -13.98866177 -2.98408103 2.176501259e-38
11.58709812 -13.96977615 -2.989958048 2.176501259e-38
11.6886034 -13.97741413 -3.001695871 2.176501259e-38
11.7838068 -13.9767065 -3.011628866 2.176501259e-38
11.87449074 -13.96992111 -3.02044487 2.176501259e-38
11.98015404 -13.97995663 -3.032991886 2.176501259e-38
12.04918575 -13.94673634 -3.036280155 2.176501259e-38
12.14130116 -13.93970776 -3.045349121 2.176501259e-38
12.16450882 -13.85339832 -3.037155628 2.176501259e-38
12.24789047 -13.83578396 -3.044062853 2.176501259e-38
12.28270435 -13.76322556 -3.03893733 2.176501259e-38
12.32935429 -13.70420551 -3.036825895 2.176501259e-38
12.38193417 -13.65189362 -3.036235571 2.176501259e-38
12.50784016 -13.56970501 -3.040228844 2.176501259e-38
12.66243839 -13.51784515 -3.051318407 2.176501259e-38
12.88702869 -13.53778267 -3.079108953 2.167317709e-38
13.01088715 -13.55834579 -3.095656395 2.167317709e-38
13.10717392 -13.54923344 -3.105582476 2.167317709e-38
13.20495892 -13.54097748 -3.115828991 2.167317709e-38
13.32761765 -13.55730438 -3.13188839 2.167317709e-38
13.43431854 -13.5563879 -3.14413023 2.167317709e-38
13.54043388 -13.55405807 -3.156186581 2.167317709e-38
13.62880898 -13.53328514 -3.164080858 2.167317709e-38
13.86421776 -13.54738903 -3.193340063 2.167317709e-38
13.95508289 -13.5269413 -3.201717615 2.167317709e-38
14.17549896 -13.52124786 -3.227242231 2.167317709e-38
14.30979061 -13.53989792 -3.245398283 2.15813416e-38
14.41650391 -13.53146076 -3.257237673 2.15813416e-38
14.6637249 -13.5434103 -3.288384676 2.15813416e-38
14.75708961 -13.5201273 -3.297110081 2.15813416e-38
14.88406086 -13.52679062 -3.313302994 2.15813416e-38
14.99811363 -13.52075577 -3.326565504 2.15813416e-38
15.11821938 -13.51926708 -3.341122389 2.15813416e-38
15.24375725 -13.52162647 -3.356825352 2.15813416e-38
15.36636829 -13.52040386 -3.371829748 2.15813416e-38
15.47790527 -13.50854015 -3.384359121 2.15813416e-38
15.59383869 -13.4996767 -3.397817373 2.15813416e-38
15.72537136 -13.50332642 -3.414619446 2.14895061e-38
16.02766609 -13.54055691 -3.456509352 2.14895061e-38
16.10308647 -13.49372387 -3.461051941 2.14895061e-38
16.27073097 -13.523242 -3.485370159 2.14895061e-38
16.37589073 -13.49970913 -3.496241808 2.14895061e-38
16.5351181 -13.51968956 -3.518603802 2.14895061e-38
16.63337326 -13.48883533 -3.527945518 2.14895061e-38
16.77718735 -13.49401474 -3.546914816 2.14895061e-38
16.92969322 -13.50495529 -3.567650318 2.14895061e-38
17.18553734 -13.48438168 -3.59860158 2.13976706e-38
17.29346085 -13.45708752 -3.6098423 2.13976706e-38
17.61785316 -13.48352146 -3.654810667 2.13976706e-38
17.74171448 -13.46556377 -3.669244766 2.13976706e-38
18.0127449 -13.44440365 -3.7028234 2.13976706e-38
18.20016289 -13.47071838 -3.730188131 2.13976706e-38
18.50136185 -13.46476269 -3.769613266 2.130583511e-38
18.67556763 -13.47703457 -3.794036865 2.130583511e-38
18.80653954 -13.45692253 -3.809623957 2.130583511e-38
18.95301247 -13.44685078 -3.828313828 2.130583511e-38
19.13558006 -13.46107483 -3.854228735 2.130583511e-38
19.28802681 -13.45273495 -3.874011993 2.130583511e-38
19.66221619 -13.48004055 -3.927272797 2.130583511e-38
19.80724335 -13.46274185 -3.945398331 2.121399961e-38
19.99937248 -13.4761219 -3.972846985 2.121399961e-38
20.67051697 -13.45019817 -4.062675476 2.121399961e-38
20.87763214 -13.4658289 -4.092710495 2.121399961e-38
21.21453667 -13.44284248 -4.137434959 2.112216412e-38
21.38788033 -13.43249226 -4.160676003 2.112216412e-38
22.16355324 -13.42760754 -4.269011974 2.112216412e-38
22.35663795 -13.42203045 -4.295776367 2.103032862e-38
23.23792648 -13.44760036 -4.422989368 2.103032862e-38
23.42356491 -13.42960072 -4.448009014 2.103032862e-38
23.65928459 -13.43867874 -4.482479095 2.093849312e-38
23.87664986 -13.43548393 -4.513390541 2.093849312e-38
24.08985519 -13.42823601 -4.543450832 2.093849312e-38
24.56826782 -13.43715572 -4.613156319 2.093849312e-38
24.76927757 -13.41800213 -4.640734196 2.084665763e-38
24.98696709 -13.40629959 -4.671383858 2.084665763e-38
25.72756958 -13.40661526 -4.779267788 2.084665763e-38
26.02288628 -13.42775726 -4.824056625 2.075482213e-38
26.25525284 -13.41430473 -4.857099533 2.075482213e-38
26.5179863 -13.41438103 -4.895688057 2.075482213e-38
26.76980209 -13.40688324 -4.932188511 2.075482213e-38
27.026371 -13.39975357 -4.969495773 2.075482213e-38
27.29623032 -13.39710617 -5.009170532 2.066298664e-38
27.80404091 -13.37003422 -5.082468987 2.066298664e-38
28.08998108 -13.36878204 -5.124874115 2.066298664e-38
28.35788155 -13.35673141 -5.163914204 2.066298664e-38
28.95739555 -13.35570621 -5.253358841 2.057115114e-38
29.27225113 -13.35848141 -5.300693989 2.057115114e-38
29.60795021 -13.36813545 -5.351708412 2.057115114e-38
29.66973686 -13.25269699 -5.353207588 2.057115114e-38
29.81979942 -12.89062977 -5.351841927 2.057115114e-38
29.86363411 -12.76737595 -5.350456238 2.057115114e-38
29.93072701 -12.65398979 -5.353321075 2.057115114e-38
29.95174789 -12.52115917 -5.348030567 2.057115114e-38
30.09079742 -12.29603672 -5.355035782 2.057115114e-38
30.05599213 -12.14105701 -5.340112209 2.057115114e-38
30.14215469 -12.03515339 -5.346781731 2.057115114e-38
30.18579865 -11.91210556 -5.345985889 2.057115114e-38
30.26606369 -11.8033886 -5.351753712 2.057115114e-38
30.43775558 -11.30995274 -5.349261284 2.057115114e-38
30.48812485 -11.18937874 -5.350163937 2.057115114e-38
30.58646011 -10.947258 -5.351803303 2.057115114e-38
30.79474258 -10.1909008 -5.343675137 2.057115114e-38
30.86302948 -10.07604408 -5.348453999 2.057115114e-38
30.94247437 -9.827402115 -5.348354816 2.057115114e-38
30.98309326 -9.703367233 -5.34858942 2.057115114e-38
31.19278526 -9.631526947 -5.378069401 2.047931564e-38
31.59470749 -9.616672516 -5.440650463 2.047931564e-38
31.97500992 -9.592178345 -5.499468803 2.047931564e-38
32.00362015 -9.460677147 -5.497788429 2.047931564e-38
32.060112 -9.337393761 -5.501001358 2.047931564e-38
32.1305275 -9.078321457 -5.500382423 2.047931564e-38
32.18803024 -8.954963684 -5.504002094 2.047931564e-38
32.24298477 -8.830792427 -5.507300377 2.047931564e-38
32.23666382 -8.68991375 -5.500211239 2.047931564e-38
32.29773712 -8.428420067 -5.498889923 2.047931564e-38
32.33221817 -8.298741341 -5.499032974 2.047931564e-38
32.3585434 -8.166986465 -5.497882366 2.047931564e-38
32.44010162 -7.910711765 -5.500760078 2.047931564e-38
32.44445038 -7.773713589 -5.496152878 2.047931564e-38
32.554142 -7.523776531 -5.504309654 2.047931564e-38
32.57099152 -7.389858723 -5.502090931 2.047931564e-38
32.59732437 -7.258183956 -5.501565933 2.047931564e-38
32.61709976 -6.987830639 -5.49524498 2.047931564e-38
32.67090607 -6.862113953 -5.499616623 2.047931564e-38
32.72589493 -6.736416817 -5.504270077 2.047931564e-38
32.74178314 -6.602598667 -5.502434254 2.047931564e-38
32.78802872 -6.201406479 -5.497247219 2.047931564e-38
32.86138535 -6.078548431 -5.505393982 2.047931564e-38
32.88918304 -5.538314819 -5.494419098 2.047931564e-38
32.92427826 -5.272375107 -5.493022442 2.047931564e-38
33.03649139 -4.882487297 -5.501521111 2.047931564e-38
33.03749466 -4.746999741 -5.498465061 2.047931564e-38
33.07176971 -4.616314411 -5.501036644 2.047931564e-38
33.12516403 -4.488077641 -5.506874084 2.047931564e-38
