# .PCD v0.7 - Point Cloud Data file format
VERSION 0.7
FIELDS x y z rgb
SIZE 4 4 4 4
TYPE F F F F
COUNT 1 1 1 1
WIDTH 887
HEIGHT 1
VIEWPOINT 0 0 0 1 0 0 0
POINTS 887
DATA ascii
8.381686211 5.311151981 -5.434725761 2.240786106e-38
8.353695869 5.388038635 -5.444495678 2.240786106e-38
8.29386425 5.492209435 -5.448289394 2.240786106e-38
8.266859055 5.522220612 -5.445049763 2.240786106e-38
8.243220329 5.554528713 -5.444188595 2.240786106e-38
8.228503227 5.592806339 -5.449242115 2.240786106e-38
8.209339142 5.628158569 -5.451488972 2.240786106e-38
8.160849571 5.643276691 -5.434310913 2.240786106e-38
8.140796661 5.677921772 -5.436115265 2.240786106e-38
8.148344994 5.732008457 -5.456493855 2.240786106e-38
8.084368706 5.735721111 -5.429050446 2.240786106e-38
8.081571579 5.782722473 -5.44273901 2.240786106e-38
8.04237175 5.803699017 -5.432011604 2.240786106e-38
8.047112465 5.85645628 -5.451068878 2.240786106e-38
8.029753685 5.893343449 -5.455314159 2.240786106e-38
7.938930035 5.925477505 -5.425801754 2.240786106e-38
7.935031414 5.97238636 -5.439499855 2.240786106e-38
7.897148132 6.043935299 -5.44666481 2.240786106e-38
7.879024982 6.131145954 -5.467989922 2.240786106e-38
7.829264164 6.143113613 -5.450551033 2.240786106e-38
7.805125713 6.175031662 -5.450987816 2.240786106e-38
7.729382992 6.268135071 -5.45048666 2.240786106e-38
7.627803326 6.339763165 -5.432380676 2.240786106e-38
7.590555668 6.412674904 -5.442387104 2.240786106e-38
7.526919842 6.463338375 -5.433850288 2.240786106e-38
7.518789768 6.509058475 -5.446829796 2.240786106e-38
7.447020531 6.605705261 -5.452150822 2.240786106e-38
7.38533926 6.657863617 -5.446014881 2.240786106e-38
7.35837841 6.687372684 -5.445913792 2.240786106e-38
7.341828346 6.726429939 -5.453642368 2.240786106e-38
7.295974255 6.738559723 -5.439649582 2.240786106e-38
7.270794868 6.76966095 -5.441119671 2.240786106e-38
7.241857052 6.797256947 -5.43985796 2.240786106e-38
7.222231865 6.833715916 -5.445755959 2.240786106e-38
7.206969738 6.874349117 -5.455004692 2.240786106e-38
7.178540707 6.902560711 -5.454446793 2.240786106e-38
7.13175869 6.91294384 -5.439956188 2.240786106e-38
7.082834721 6.976853371 -5.445259094 2.240786106e-38
7.063847065 7.014328957 -5.452300072 2.240786106e-38
7.018518925 7.025560856 -5.43905592 2.240786106e-38
6.968434334 7.088510513 -5.444236279 2.240786106e-38
6.835621357 7.180808544 -5.429995537 2.240786106e-38
6.835704327 7.238947392 -5.453137875 2.240786106e-38
6.768130302 7.225345612 -5.42235136 2.240786106e-38
6.733705521 7.246766567 -5.41807127 2.240786106e-38
6.733899593 7.30565691 -5.441815376 2.240786106e-38
6.663863659 7.406957626 -5.457012177 2.240786106e-38
6.627580643 7.426451683 -5.451703072 2.240786106e-38
6.591959 7.446582317 -5.44698143 2.240786106e-38
6.573120117 7.48571825 -5.456236839 2.240786106e-38
6.494235516 7.516922951 -5.440749168 2.240786106e-38
6.425135612 7.558953762 -5.43360424 2.240786106e-38
6.420615673 7.615461826 -5.455626011 2.240786106e-38
6.382487297 7.632287025 -5.449255943 2.240786106e-38
6.294443607 7.714166641 -5.453118324 2.240786106e-38
6.264878273 7.741253853 -5.454418659 2.240786106e-38
6.203166008 7.79229784 -5.45506525 2.240786106e-38
6.168354511 7.812803745 -5.452018261 2.240786106e-38
6.120751381 7.816918373 -5.437675953 2.240786106e-38
6.099860191 7.855097294 -5.44713068 2.240786106e-38
6.061918259 7.871353149 -5.441461086 2.240786106e-38
6.003797531 7.926903725 -5.446317673 2.240786106e-38
5.917848587 8.012375832 -5.455608845 2.240786106e-38
5.877631187 8.025240898 -5.448235512 2.240786106e-38
5.858708858 8.067243576 -5.460715771 2.240786106e-38
5.806928635 8.063909531 -5.442615986 2.240786106e-38
5.780601025 8.095780373 -5.448400021 2.240786106e-38
5.737538815 8.10417366 -5.438479424 2.240786106e-38
5.698277473 8.117708206 -5.43214798 2.240786106e-38
5.674121857 8.152795792 -5.440320492 2.240786106e-38
5.662367821 8.2060709 -5.460637093 2.240786106e-38
5.61631012 8.209726334 -5.448001862 2.240786106e-38
5.566504002 8.207530022 -5.431650162 2.240786106e-38
5.562629223 8.273211479 -5.460274696 2.240786106e-38
5.525737762 8.290131569 -5.456737518 2.240786106e-38
5.452556133 8.32459259 -5.450387478 2.240786106e-38
5.373468876 8.349538803 -5.438258648 2.240786106e-38
5.290987492 8.368460655 -5.422699451 2.240786106e-38
5.280674458 8.426953316 -5.446804047 2.240786106e-38
5.236744404 8.431992531 -5.436407566 2.240786106e-38
5.217004299 8.47604847 -5.451248646 2.240786106e-38
5.163935184 8.465876579 -5.431312084 2.240786106e-38
5.162800312 8.541067123 -5.466190338 2.240786106e-38
4.975973606 8.618656158 -5.450726509 2.240786106e-38
4.910140514 8.664765358 -5.454743862 2.240786106e-38
4.849156857 8.637915611 -5.425526142 2.240786106e-38
4.83665657 8.697387695 -5.450623512 2.240786106e-38
4.791955948 8.699149132 -5.439611435 2.240786106e-38
4.766422272 8.735704422 -5.450444221 2.240786106e-38
4.716688633 8.727830887 -5.433656216 2.240786106e-38
4.705069542 8.790626526 -5.460932255 2.240786106e-38
4.583089828 8.816658974 -5.442371368 2.240786106e-38
4.524131775 8.87693119 -5.456944942 2.240786106e-38
4.405418873 8.907936096 -5.442946434 2.240786106e-38
4.36305666 8.912261009 -5.434827805 2.240786106e-38
4.25538063 8.964477539 -5.434979916 2.240786106e-38
4.197702885 9.029662132 -5.453862667 2.240786106e-38
4.11511755 9.041467667 -5.440834999 2.240786106e-38
4.086647034 9.075504303 -5.451387882 2.240786106e-38
3.894251347 9.134301186 -5.438577175 2.240786106e-38
3.870918751 9.181706429 -5.457509995 2.240786106e-38
3.826147556 9.178409576 -5.446353436 2.240786106e-38
3.758325577 9.223831177 -5.455199242 2.240786106e-38
3.704707384 9.197871208 -5.430996418 2.240786106e-38
3.672551155 9.224863052 -5.438172817 2.240786106e-38
3.634765625 9.237850189 -5.437168598 2.240786106e-38
3.600025892 9.258612633 -5.4408288 2.240786106e-38
3.555046797 9.252906799 -5.429032803 2.240786106e-38
3.541213512 9.328738213 -5.465129852 2.240786106e-38
3.501005411 9.335753441 -5.460950851 2.240786106e-38
3.455433607 9.328122139 -5.448316574 2.240786106e-38
3.231280088 9.413923264 -5.451384544 2.240786106e-38
3.195720434 9.433773041 -5.455327511 2.240786106e-38
3.156677723 9.443267822 -5.453433514 2.240786106e-38
3.076014757 9.454094887 -5.445226669 2.240786106e-38
2.880600214 9.498260498 -5.436214447 2.240786106e-38
2.853802204 9.54791832 -5.458026886 2.240786106e-38
2.768362761 9.540969849 -5.441154003 2.240786106e-38
2.739277124 9.584522247 -5.459667683 2.240786106e-38
2.650305271 9.563565254 -5.435417175 2.240786106e-38
2.613340855 9.579634666 -5.438541412 2.240786106e-38
2.571875095 9.579145432 -5.43234396 2.240786106e-38
2.541995287 9.62213707 -5.450885296 2.240786106e-38
2.503222942 9.631979942 -5.450722218 2.240786106e-38
2.463124752 9.636680603 -5.447729588 2.240786106e-38
2.279020786 9.386828423 -5.290562153 2.240786106e-38
2.245174408 9.412287712 -5.299781799 2.240786106e-38
2.206352234 9.417078972 -5.297441959 2.240786106e-38
2.131830692 9.440121651 -5.300590038 2.240786106e-38
2.088389397 9.423892021 -5.286721706 2.240786106e-38
2.049160004 9.426129341 -5.283312321 2.240786106e-38
2.010944843 9.432841301 -5.282500744 2.240786106e-38
1.980869055 9.478471756 -5.303551197 2.240786106e-38
1.938319683 9.464719772 -5.291454792 2.240786106e-38
1.899083018 9.46649456 -5.288136482 2.240786106e-38
1.862992883 9.48414135 -5.293766975 2.240786106e-38
1.822712302 9.480461121 -5.287580967 2.240786106e-38
1.783907652 9.484086037 -5.285558701 2.240786106e-38
1.752817988 9.52948761 -5.306892872 2.240786106e-38
1.705908298 9.488739014 -5.280338764 2.240786106e-38
1.669096112 9.503166199 -5.284591198 2.240786106e-38
1.595784426 9.535059929 -5.295021534 2.240786106e-38
1.55479455 9.525209427 -5.286036015 2.240786106e-38
1.514706731 9.520148277 -5.279806137 2.240786106e-38
1.439240575 9.539475441 -5.283936501 2.240786106e-38
1.32869339 9.589332581 -5.302289486 2.240786106e-38
1.247777104 9.570719719 -5.286278248 2.240786106e-38
1.208778262 9.571574211 -5.284025669 2.240786106e-38
1.133775353 9.597853661 -5.293328285 2.240786106e-38
1.092929959 9.58261013 -5.282455921 2.240786106e-38
1.018029213 9.611617088 -5.293762684 2.240786106e-38
0.9789660573 9.61152935 -5.291505337 2.240786106e-38
0.9435796738 9.648713112 -5.309844494 2.240786106e-38
0.9018589258 9.621273994 -5.292706013 2.240786106e-38
0.8268905878 9.656344414 -5.308170319 2.240786106e-38
0.6300550699 9.631433487 -5.286445141 2.240786106e-38
0.5539742112 9.660146713 -5.299589634 2.240786106e-38
0.5148385763 9.656707764 -5.296524525 2.240786106e-38
0.4762695134 9.663846016 -5.299347401 2.240786106e-38
0.3975242674 9.642403603 -5.285666466 2.240786106e-38
0.3597021401 9.669213295 -5.299527645 2.240786106e-38
0.2440890521 9.712769508 -5.321397781 2.240786106e-38
0.1648249477 9.646567345 -5.284230709 2.240786106e-38
0.08727125078 9.648036003 -5.284481049 2.240786106e-38
0.009744470939 9.696809769 -5.310980797 2.240786106e-38
-0.02914953418 9.669019699 -5.295781612 2.240786106e-38
-0.09589020908 8.673556328 -4.750825405 2.249969656e-38
-0.1849191189 9.68307209 -5.304419041 2.240786106e-38
-0.2229812145 9.644957542 -5.28399086 2.240786106e-38
-0.3012159765 9.665243149 -5.296259403 2.240786106e-38
-0.3400262594 9.662748337 -5.295597553 2.240786106e-38
-0.4172459841 9.649131775 -5.28979969 2.240786106e-38
-0.4556671083 9.639742851 -5.285616875 2.240786106e-38
-0.2684965432 5.233948231 -2.870418072 2.286703854e-38
-0.2877579033 5.200675488 -2.852784872 2.286703854e-38
-0.3080531061 5.189227581 -2.847159386 2.286703854e-38
-0.3464924693 5.138030529 -2.82050705 2.286703854e-38
-0.4313333929 5.15899992 -2.835458994 2.286703854e-38
-0.4727080762 5.154371738 -2.834912777 2.286703854e-38
-0.5176368952 5.185530186 -2.854247332 2.286703854e-38
-0.5417603254 5.21497488 -2.871628523 2.286703854e-38
-1.078010678 9.623475075 -5.303778172 2.240786106e-38
-1.117424011 9.625369072 -5.307256222 2.240786106e-38
-1.196485996 9.62987709 -5.314873695 2.240786106e-38
-1.231193304 9.593846321 -5.29767704 2.240786106e-38
-1.262603164 9.534853935 -5.267861843 2.240786106e-38
-1.306398988 9.569839478 -5.290049553 2.240786106e-38
-1.343925118 9.557850838 -5.286365509 2.240786106e-38
-1.391201496 9.613651276 -5.320278168 2.240786106e-38
-1.422054052 9.555687904 -5.291322231 2.240786106e-38
-1.458921552 9.539827347 -5.285745144 2.240786106e-38
-1.499022961 9.5451231 -5.291975498 2.240786106e-38
-1.536036611 9.530692101 -5.287352562 2.240786106e-38
-1.615243673 9.53354454 -5.295970917 2.240786106e-38
-1.658796668 9.557177544 -5.31276083 2.240786106e-38
-1.888027668 9.510461807 -5.310564518 2.240786106e-38
-1.922140837 9.482539177 -5.299246311 2.240786106e-38
-1.961081505 9.478765488 -5.301499844 2.240786106e-38
-1.993953586 9.446115494 -5.287678242 2.240786106e-38
-2.033876419 9.447128296 -5.292780876 2.240786106e-38
-2.183405161 9.40413475 -5.287679672 2.240786106e-38
-2.234866381 9.45313549 -5.320240498 2.240786106e-38
-2.301962376 9.398791313 -5.299900532 2.240786106e-38
-2.34055233 9.392765045 -5.301766396 2.240786106e-38
-2.380869865 9.393429756 -5.307500362 2.240786106e-38
-2.452178955 9.358217239 -5.298573017 2.240786106e-38
-2.57049942 9.348499298 -5.310237408 2.240786106e-38
-2.592360258 9.281876564 -5.278268337 2.240786106e-38
-2.648263693 9.336979866 -5.315615654 2.240786106e-38
-2.663972616 9.250570297 -5.272476196 2.240786106e-38
-2.714787245 9.286452293 -5.299106121 2.240786106e-38
-2.751844406 9.274618149 -5.298623562 2.240786106e-38
-2.793955088 9.279603004 -5.307843685 2.240786106e-38
-2.861890793 9.235646248 -5.295691013 2.240786106e-38
-2.89578867 9.213867188 -5.289835453 2.240786106e-38
-2.933443069 9.204134941 -5.290975571 2.240786106e-38
-2.980859756 9.224590302 -5.309579849 2.240786106e-38
-3.020900726 9.221642494 -5.31482935 2.240786106e-38
-3.082991838 9.161539078 -5.294304371 2.240786106e-38
-3.120662689 9.151604652 -5.295770168 2.240786106e-38
-3.163941383 9.157853127 -5.306703091 2.240786106e-38
-3.198406458 9.138412476 -5.302845001 2.240786106e-38
-3.226057291 9.099938393 -5.288002491 2.240786106e-38
-3.307846069 9.097719193 -5.301995277 2.240786106e-38
-3.392890453 9.103035927 -5.320821285 2.240786106e-38
-3.459284544 9.05797863 -5.310570717 2.240786106e-38
-3.527740955 9.018983841 -5.304162979 2.240786106e-38
-3.558992863 8.99216938 -5.296762943 2.240786106e-38
-3.601688623 8.994199753 -5.306446075 2.240786106e-38
-3.703039408 8.933582306 -5.296645641 2.240786106e-38
-3.763771534 8.877645493 -5.281252384 2.240786106e-38
-3.80419445 8.8735466 -5.28786993 2.240786106e-38
-3.926129341 8.861344337 -5.308428288 2.240786106e-38
-3.95238018 8.824640274 -5.295915127 2.240786106e-38
-3.997506618 8.830066681 -5.308773994 2.240786106e-38
-4.055480957 8.769771576 -5.291956425 2.240786106e-38
-4.101222515 8.775915146 -5.305566311 2.240786106e-38
-4.130105972 8.745871544 -5.297400475 2.240786106e-38
-4.173854828 8.747280121 -5.308372498 2.240786106e-38
-4.214820862 8.742531776 -5.315730572 2.240786106e-38
-4.239819527 8.704751968 -5.303080082 2.240786106e-38
-4.310830593 8.672727585 -5.304513931 2.240786106e-38
-4.343798161 8.651618958 -5.302240849 2.240786106e-38
-4.561449528 8.563603401 -5.314193726 2.240786106e-38
-4.575815201 8.507967949 -5.291041851 2.240786106e-38
-4.617260933 8.502916336 -5.299399376 2.240786106e-38
-4.637442112 8.458817482 -5.283488274 2.240786106e-38
-4.690360069 8.474348068 -5.304926872 2.240786106e-38
-4.714913845 8.438459396 -5.294283867 2.240786106e-38
-4.758000851 8.435761452 -5.304547787 2.240786106e-38
-4.775540352 8.387874603 -5.286464691 2.240786106e-38
-4.825498104 8.396932602 -5.304356575 2.240786106e-38
-4.859636784 8.378183365 -5.304812431 2.240786106e-38
-4.898111343 8.366855621 -5.310060978 2.240786106e-38
-4.939795017 8.360778809 -5.318767548 2.240786106e-38
-4.954864979 8.309821129 -5.298977852 2.240786106e-38
-5.095101833 8.240822792 -5.306542397 2.240786106e-38
-5.117982864 8.203917503 -5.295981884 2.240786106e-38
-5.154467106 8.188904762 -5.29962635 2.240786106e-38
-5.230163097 8.16285038 -5.30980587 2.240786106e-38
-5.252019405 8.124872208 -5.298792362 2.240786106e-38
-5.285302639 8.104720116 -5.299462318 2.240786106e-38
-5.316718102 8.081689835 -5.298336983 2.240786106e-38
-5.355170727 8.069314003 -5.304293633 2.240786106e-38
-5.373481274 8.026677132 -5.290425301 2.240786106e-38
-5.453431129 8.006105423 -5.30559206 2.240786106e-38
-5.520149708 7.965652943 -5.308024883 2.240786106e-38
-5.568235397 7.898635387 -5.293028355 2.240786106e-38
-5.62822485 7.915973186 -5.31976366 2.240786106e-38
-5.677781582 7.851222038 -5.306757927 2.240786106e-38
-5.707883358 7.826407909 -5.305450439 2.240786106e-38
-5.7970438 7.750580788 -5.301057339 2.240786106e-38
-5.843549728 7.747619152 -5.315056801 2.240786106e-38
-5.891509056 7.746236801 -5.330311298 2.240786106e-38
-5.871224403 7.655509472 -5.284078121 2.240786106e-38
-5.934579372 7.674024105 -5.313284397 2.240786106e-38
-6.003370762 7.635354042 -5.319754124 2.240786106e-38
-6.01398325 7.585884094 -5.302089691 2.240786106e-38
-6.125290394 7.537735462 -5.319684029 2.240786106e-38
-6.208474636 7.454591274 -5.31346035 2.240786106e-38
-6.242592812 7.434582233 -5.317040443 2.240786106e-38
-6.292923927 7.373315811 -5.309241772 2.240786106e-38
-6.364236832 7.33660078 -5.319473743 2.240786106e-38
-6.362267971 7.275030613 -5.293334007 2.240786106e-38
-6.430882931 7.235265732 -5.301851273 2.240786106e-38
-6.467523575 7.217838764 -5.308092594 2.240786106e-38
-6.530552864 7.171331406 -5.312332153 2.240786106e-38
-6.569966316 7.09911108 -5.297792435 2.240786106e-38
-6.648577213 7.069185734 -5.315178394 2.240786106e-38
-6.666926384 7.031839371 -5.307206631 2.240786106e-38
-6.693968773 7.003755569 -5.306274891 2.240786106e-38
-6.754752636 6.95400095 -5.309567451 2.240786106e-38
-6.782038689 6.926714897 -5.309488297 2.240786106e-38
-6.794537544 6.883892059 -5.297560215 2.240786106e-38
-6.844148159 6.823543549 -5.293293953 2.240786106e-38
-6.863423824 6.787956715 -5.287053108 2.240786106e-38
-6.895012379 6.764587402 -5.290397644 2.240786106e-38
-6.937486649 6.751746178 -5.302119732 2.240786106e-38
-6.945876122 6.705749989 -5.287884235 2.240786106e-38
-6.987580299 6.691954613 -5.29911375 2.240786106e-38
-6.007925034 5.616415977 -4.504482746 2.259153205e-38
-6.06811285 5.627167702 -4.532643318 2.259153205e-38
-6.160690784 5.621546268 -4.567856312 2.249969656e-38
-7.192450523 6.510217667 -5.313408375 2.240786106e-38
-7.184391499 6.450576782 -5.288259029 2.240786106e-38
-7.263413429 6.416806698 -5.30827713 2.240786106e-38
-7.29185009 6.389913559 -5.310239315 2.240786106e-38
-7.342328072 6.330516815 -5.309762955 2.240786106e-38
-7.352125168 6.287612915 -5.298527718 2.240786106e-38
-7.383916855 6.263858795 -5.303472996 2.240786106e-38
-7.413999081 6.238031387 -5.306803226 2.240786106e-38
-7.432654381 6.202856541 -5.302260399 2.240786106e-38
-7.467813969 6.131024837 -5.292007923 2.240786106e-38
-7.546596527 6.094798565 -5.312939644 2.240786106e-38
-7.532969952 6.033919334 -5.286226273 2.240786106e-38
-7.577777386 6.019961834 -5.300645351 2.240786106e-38
-7.616988182 6.001327515 -5.311154842 2.240786106e-38
-7.602853298 5.940815449 -5.28460598 2.240786106e-38
-7.664661407 5.890437603 -5.294440269 2.240786106e-38
-7.689660072 5.860673428 -5.295427799 2.240786106e-38
-7.729720592 5.842232227 -5.306797981 2.240786106e-38
-7.758522987 5.815143585 -5.310479164 2.240786106e-38
-7.795905113 5.794364452 -5.320079803 2.240786106e-38
-7.672344685 5.654788971 -5.220205307 2.240786106e-38
-7.688742161 5.619318485 -5.215956211 2.240786106e-38
-7.882507324 5.616356373 -5.301058769 2.240786106e-38
-7.922931194 5.597286701 -5.313075542 2.240786106e-38
-8.001461029 5.50932169 -5.320790768 2.240786106e-38
-8.047794342 5.493670464 -5.336874008 2.240786106e-38
-8.029294014 5.433850765 -5.310074806 2.240786106e-38
-8.051374435 5.401729584 -5.310272217 2.240786106e-38
-8.10625267 5.391423225 -5.332130909 2.240786106e-38
-8.169995308 5.292831898 -5.331683636 2.240786106e-38
-8.177168846 5.250926495 -5.322545052 2.240786106e-38
-8.256650925 5.208692074 -5.346848965 2.240786106e-38
-8.243466377 5.154160976 -5.324851513 2.240786106e-38
-8.278759956 5.130052567 -5.334283352 2.240786106e-38
-8.332811356 5.117303848 -5.355811119 2.240786106e-38
-8.35423851 5.038421631 -5.343379498 2.240786106e-38
-8.399443626 5.019746304 -5.359339714 2.240786106e-38
-8.366315842 4.954409599 -5.325451374 2.240786106e-38
-8.459183693 4.96358633 -5.371822357 2.240786106e-38
-8.445077896 4.864452839 -5.337850571 2.240786106e-38
-8.474660873 4.836231709 -5.344220161 2.240786106e-38
-8.530165672 4.82255125 -5.366950989 2.240786106e-38
-8.54274559 4.739434242 -5.350720882 2.240786106e-38
-8.606614113 4.595451355 -5.343726158 2.240786106e-38
-8.646668434 4.572305679 -5.357189178 2.240786106e-38
-8.719239235 4.432740211 -5.357261181 2.240786106e-38
-8.711833954 4.341186047 -5.331093311 2.240786106e-38
-8.76421833 4.323400974 -5.352472782 2.240786106e-38
-8.758272171 4.276777744 -5.338298321 2.240786106e-38
-8.800373077 4.253608227 -5.353495121 2.240786106e-38
-8.801272392 4.210480213 -5.343698978 2.240786106e-38
-8.821055412 4.176454067 -5.345474243 2.240786106e-38
-8.852815628 4.148001194 -5.354568481 2.240786106e-38
-8.839278221 4.098408699 -5.33637619 2.240786106e-38
-8.868485451 4.068716526 -5.344089508 2.240786106e-38
-8.854075432 4.019098282 -5.325628757 2.240786106e-38
-8.911931038 4.002234936 -5.350709438 2.240786106e-38
-8.913599968 3.917168617 -5.332625389 2.240786106e-38
-8.946359634 3.888738394 -5.342832565 2.240786106e-38
-8.984968185 3.86265254 -5.356572151 2.240786106e-38
-8.979621887 3.817652941 -5.344191551 2.240786106e-38
-9.00165844 3.784371614 -5.348210812 2.240786106e-38
-8.999768257 3.741076708 -5.338107586 2.240786106e-38
-9.050883293 3.719719648 -5.359514236 2.240786106e-38
-9.074843407 3.686997175 -5.364882946 2.240786106e-38
-9.052940369 3.635772467 -5.343251705 2.240786106e-38
-9.100072861 3.527866364 -5.345575333 2.240786106e-38
-9.107811928 3.488810778 -5.341836452 2.240786106e-38
-9.163838387 3.384117126 -5.35036993 2.240786106e-38
-9.174824715 3.346328735 -5.348888874 2.240786106e-38
-9.202802658 3.314677715 -5.357386589 2.240786106e-38
-9.214287758 3.277028322 -5.356361389 2.240786106e-38
-9.196069717 3.228963852 -5.338181973 2.240786106e-38
-9.224861145 3.197477818 -5.347391129 2.240786106e-38
-9.248476982 3.164074421 -5.353662491 2.240786106e-38
-9.265650749 3.086968184 -5.34906292 2.240786106e-38
-9.255964279 3.042455673 -5.336369514 2.240786106e-38
-9.282968521 3.010036707 -5.344918251 2.240786106e-38
-9.278734207 2.96750021 -5.335569859 2.240786106e-38
-9.309185982 2.936032057 -5.346246243 2.240786106e-38
-9.316034317 2.897072315 -5.343450069 2.240786106e-38
-9.349590302 2.866343975 -5.356046677 2.240786106e-38
-9.369433403 2.790216208 -5.35438776 2.240786106e-38
-9.362990379 2.747371197 -5.344353199 2.240786106e-38
-9.421060562 2.723319054 -5.371201515 2.240786106e-38
-9.516123772 2.7093997 -5.419148922 2.240786106e-38
-9.639669418 2.70273447 -5.483275414 2.240786106e-38
-9.668290138 2.668878794 -5.493406773 2.240786106e-38
-9.709412575 2.638261557 -5.510679722 2.240786106e-38
-9.701125145 2.594191074 -5.500034809 2.240786106e-38
-9.702312469 2.552759409 -5.494845867 2.240786106e-38
-9.769869804 2.361647367 -5.505103588 2.240786106e-38
-9.788508415 2.324538231 -5.510297775 2.240786106e-38
-9.769318581 2.278539419 -5.49429369 2.240786106e-38
-9.78815937 2.24148488 -5.499778271 2.240786106e-38
-9.808755875 2.204736948 -5.506326199 2.240786106e-38
-9.809084892 2.122113943 -5.496756554 2.240786106e-38
-9.840741158 2.087584734 -5.509750366 2.240786106e-38
-9.828103065 2.043654919 -5.498031616 2.240786106e-38
-9.837788582 2.004444361 -5.498892307 2.240786106e-38
-9.861264229 1.926784754 -5.503180027 2.240786106e-38
-9.843540192 1.882275224 -5.489023209 2.240786106e-38
-9.896440506 1.810040832 -5.510241508 2.240786106e-38
-9.898900986 1.728356123 -5.503682613 2.240786106e-38
-9.859553337 1.639912724 -5.474297523 2.240786106e-38
-9.926437378 1.610055208 -5.507795811 2.240786106e-38
-9.941838264 1.530626774 -5.509332657 2.240786106e-38
-9.932753563 1.488374949 -5.500939369 2.240786106e-38
-9.948870659 1.449926734 -5.506594658 2.240786106e-38
-9.952115059 1.409565806 -5.505205154 2.240786106e-38
-9.908651352 1.362795234 -5.478087902 2.240786106e-38
-9.963522911 1.288814425 -5.502518654 2.240786106e-38
-9.986737251 1.169547915 -5.507148743 2.240786106e-38
-10.00982189 1.090732455 -5.514837742 2.240786106e-38
-9.962551117 1.045092821 -5.486478329 2.240786106e-38
-9.983283997 1.006695628 -5.495595932 2.240786106e-38
-10.00150871 0.9679415822 -5.503458023 2.240786106e-38
-10.01675606 0.9287934899 -5.509755611 2.240786106e-38
-10.02502537 0.8889259696 -5.512290478 2.240786106e-38
-10.0396719 0.8495598435 -5.518419266 2.240786106e-38
-10.02222824 0.8075124621 -5.506978035 2.240786106e-38
-10.01945591 0.7667693496 -5.503736496 2.240786106e-38
-10.04693222 0.7282616496 -5.517177582 2.240786106e-38
-10.01225471 0.6448655128 -5.495096684 2.240786106e-38
-10.04421043 0.6063959002 -5.511264324 2.240786106e-38
-10.00984097 0.5639511943 -5.49112463 2.240786106e-38
-10.03652382 0.4845345914 -5.503441811 2.240786106e-38
-10.03538609 0.4440540671 -5.501793861 2.240786106e-38
-10.01689529 0.4028885067 -5.49071312 2.240786106e-38
-10.02890491 0.3630016148 -5.496459007 2.240786106e-38
-10.03029442 0.2823240757 -5.495803356 2.240786106e-38
-10.02490902 0.2418466806 -5.492273808 2.240786106e-38
-10.04530716 0.2019419521 -5.50296402 2.240786106e-38
-10.04544735 0.1615429521 -5.502640247 2.240786106e-38
-10.04258823 0.1211196035 -5.500758648 2.240786106e-38
-10.0219326 0.08058123291 -5.489223003 2.240786106e-38
-10.04499626 0.04038191587 -5.501724243 2.240786106e-38
-9.519550323 3.04959849e-06 -5.496108532 2.240786106e-38
-9.529716492 -0.03831147775 -5.502018452 2.240786106e-38
-9.556717873 -0.07683644444 -5.517743587 2.240786106e-38
-9.518180847 -0.1147895381 -5.495724201 2.240786106e-38
-9.538459778 -0.2301080078 -5.508627892 2.240786106e-38
-9.51109314 -0.2677090168 -5.493398666 2.240786106e-38
-9.50322628 -0.3057210147 -5.489526749 2.240786106e-38
-9.483373642 -0.3432515264 -5.47880888 2.240786106e-38
-9.513565063 -0.3826470971 -5.497093201 2.240786106e-38
-9.512511253 -0.4592303634 -5.498447418 2.240786106e-38
-9.503240585 -0.4970863461 -5.494193554 2.240786106e-38
-9.49028492 -0.5346685648 -5.487903118 2.240786106e-38
-9.504857063 -0.5738278031 -5.497625351 2.240786106e-38
-9.499250412 -0.6501764655 -5.497226715 2.240786106e-38
-9.490317345 -0.9184618592 -5.504837513 2.240786106e-38
-9.456597328 -0.9535874128 -5.487454414 2.240786106e-38
-9.458337784 -1.146222472 -5.500725746 2.240786106e-38
-9.44319725 -1.376224041 -5.509627342 2.240786106e-38
-9.427384377 -1.412645459 -5.503671646 2.240786106e-38
-9.412601471 -1.449139118 -5.498390675 2.240786106e-38
-9.404684067 -1.48664856 -5.497218609 2.240786106e-38
-9.418066025 -1.527596354 -5.508578777 2.240786106e-38
-9.433581352 -1.569056034 -5.521298885 2.240786106e-38
-9.376968384 -1.598404408 -5.491880894 2.240786106e-38
-9.39799118 -1.640894771 -5.508017063 2.240786106e-38
-9.356719971 -1.828198195 -5.504254818 2.240786106e-38
-9.336870193 -1.902375221 -5.501396656 2.240786106e-38
-9.290103912 -2.009829521 -5.487723827 2.240786106e-38
-9.305695534 -2.052395105 -5.501763821 2.240786106e-38
-9.295543671 -2.128669024 -5.505702972 2.240786106e-38
-9.296378136 -2.168228626 -5.51131773 2.240786106e-38
-9.264667511 -2.200135469 -5.497714043 2.240786106e-38
-9.269459724 -2.240677595 -5.505859375 2.240786106e-38
-9.248916626 -2.314567327 -5.504518986 2.240786106e-38
-9.23270607 -2.349994421 -5.500463009 2.240786106e-38
-9.198296547 -2.380648851 -5.485619545 2.240786106e-38
-9.216323853 -2.424887657 -5.502140522 2.240786106e-38
-9.215857506 -2.46442008 -5.507733822 2.240786106e-38
-9.174312592 -2.532513857 -5.494891644 2.240786106e-38
-9.160292625 -2.60808444 -5.498878479 2.240786106e-38
-9.156132698 -2.64673233 -5.502719879 2.240786106e-38
-9.180283546 -2.69375062 -5.523701191 2.240786106e-38
-9.10210228 -2.750481606 -5.489788532 2.240786106e-38
-9.093265533 -2.908171654 -5.5119524 2.240786106e-38
-9.082283974 -2.985355854 -5.519663334 2.240786106e-38
-9.029588699 -3.008306742 -5.494942188 2.240786106e-38
-8.994813919 -3.117731333 -5.49626255 2.240786106e-38
-9.016822815 -3.166019201 -5.517445564 2.240786106e-38
-8.956892967 -3.185477734 -5.488563538 2.240786106e-38
-8.95588398 -3.225731611 -5.495846272 2.240786106e-38
-8.95882988 -3.267540693 -5.505671024 2.240786106e-38
-8.935265541 -3.299699783 -5.499296665 2.240786106e-38
-8.916723251 -3.374565601 -5.504403591 2.240786106e-38
-8.88174057 -3.443210125 -5.49971962 2.240786106e-38
-8.85060215 -3.472135305 -5.489043236 2.240786106e-38
-8.858699799 -3.516463757 -5.502781868 2.240786106e-38
-8.830187798 -3.587590933 -5.502810001 2.240786106e-38
-8.780247688 -3.608488321 -5.480683327 2.240786106e-38
-8.820205688 -3.666426897 -5.514780045 2.240786106e-38
-8.772855759 -3.688175201 -5.494404793 2.240786106e-38
-8.777071953 -3.731534481 -5.506397247 2.240786106e-38
-8.731834412 -3.753818512 -5.487432957 2.240786106e-38
-8.745668411 -3.801496983 -5.505689621 2.240786106e-38
-8.722001076 -3.832965612 -5.500444412 2.240786106e-38
-8.667900085 -3.976683617 -5.505942822 2.240786106e-38
-8.636800766 -4.004521847 -5.496369839 2.240786106e-38
-8.617418289 -4.080031395 -5.504735947 2.240786106e-38
-8.581095695 -4.105142117 -5.49202919 2.240786106e-38
-8.540111542 -4.170238972 -5.487082005 2.240786106e-38
-8.552043915 -4.218726635 -5.505598545 2.240786106e-38
-8.509032249 -4.282907009 -5.499900341 2.240786106e-38
-8.470944405 -4.306506634 -5.486430168 2.240786106e-38
-8.509403229 -4.369191647 -5.522668839 2.240786106e-38
-8.446965218 -4.423312664 -5.505048752 2.240786106e-38
-8.395312309 -4.482632637 -5.494695663 2.240786106e-38
-8.419135094 -4.538942814 -5.522185802 2.240786106e-38
-8.345249176 -4.542500496 -5.485659122 2.240786106e-38
-8.339063644 -4.582682133 -5.493654251 2.240786106e-38
-8.335268974 -4.624322414 -5.503359795 2.240786106e-38
-8.208341599 -4.772135735 -5.481787205 2.240786106e-38
-8.228713989 -4.828345776 -5.508312225 2.240786106e-38
-8.192624092 -4.851546288 -5.497163773 2.240786106e-38
-8.163861275 -4.923605919 -5.504259109 2.240786106e-38
-8.10945034 -4.980127335 -5.494380951 2.240786106e-38
-8.089834213 -5.012976646 -5.494699001 2.240786106e-38
-8.064605713 -5.087534904 -5.505170822 2.240786106e-38
-8.04887104 -5.122955799 -5.508441925 2.240786106e-38
-8.00771904 -5.14210701 -5.49437952 2.240786106e-38
-7.969920635 -5.163201809 -5.482643604 2.240786106e-38
-7.967347145 -5.207131386 -5.495232105 2.240786106e-38
-7.957043171 -5.246162415 -5.502623558 2.240786106e-38
-7.922349453 -5.269099712 -5.493234158 2.240786106e-38
-7.930213451 -5.320439339 -5.513478279 2.240786106e-38
-7.884170532 -5.335627079 -5.4963274 2.240786106e-38
-7.869916916 -5.372238636 -5.501404762 2.240786106e-38
-7.842236996 -5.399684429 -5.49718523 2.240786106e-38
-7.806186199 -5.467895985 -5.50255394 2.240786106e-38
-7.772780418 -5.53817606 -5.510212898 2.240786106e-38
-7.738519192 -5.560801983 -5.501729488 2.240786106e-38
-7.713153839 -5.58973217 -5.499629021 2.240786106e-38
-7.718936443 -5.641383648 -5.519875526 2.240786106e-38
-7.650256634 -5.686109066 -5.503275871 2.240786106e-38
-7.641056061 -5.727092743 -5.51317215 2.240786106e-38
-7.587850094 -5.783074379 -5.508152962 2.240786106e-38
-7.54220295 -5.844734192 -5.508948803 2.240786106e-38
-7.507598877 -5.915136337 -5.51823473 2.240786106e-38
-7.487625599 -5.948339939 -5.521084785 2.240786106e-38
-7.457501888 -5.973463058 -5.516531467 2.240786106e-38
-7.395813465 -6.022304058 -5.506544113 2.240786106e-38
-7.350597858 -6.034787655 -5.490895748 2.240786106e-38
-7.351435661 -6.085111141 -5.509754658 2.240786106e-38
-7.27362442 -6.070140362 -5.469675541 2.240786106e-38
-7.19824791 -6.256911755 -5.506470203 2.240786106e-38
-7.161252975 -6.275473118 -5.497425556 2.240786106e-38
-7.16120863 -6.326507568 -5.516867161 2.240786106e-38
-7.117389679 -6.338912964 -5.502693176 2.240786106e-38
-7.108225822 -6.382185459 -5.515403748 2.240786106e-38
-7.059172153 -6.389580727 -5.497228146 2.240786106e-38
-7.060920715 -6.442988396 -5.518712044 2.240786106e-38
-6.98652935 -6.426769733 -5.48072052 2.240786106e-38
-6.989183426 -6.48127079 -5.503188133 2.240786106e-38
-6.968233585 -6.566827297 -5.528087139 2.240786106e-38
-6.910053253 -6.564655304 -5.50283432 2.240786106e-38
-6.792480469 -6.663991451 -5.493831158 2.240786106e-38
-6.764225483 -6.689846992 -5.492686272 2.240786106e-38
-6.755911827 -6.735569 -5.507881165 2.240786106e-38
-6.728201389 -6.816675663 -5.529783726 2.240786106e-38
-6.67165947 -6.813963413 -5.505779743 2.240786106e-38
-6.605009556 -6.85529089 -5.496089458 2.240786106e-38
-6.581118107 -6.885684967 -5.49920845 2.240786106e-38
-6.558525085 -6.917492867 -5.503507137 2.240786106e-38
-6.522179604 -6.934775829 -5.496349812 2.240786106e-38
-6.512166977 -6.980151176 -5.511527061 2.240786106e-38
-6.456315041 -6.976294518 -5.487940311 2.240786106e-38
-6.452953339 -7.029139519 -5.509066105 2.240786106e-38
-6.425407887 -7.055861473 -5.509716511 2.240786106e-38
-6.401060581 -7.086138248 -5.513221264 2.240786106e-38
-6.358540058 -7.096204758 -5.501121521 2.240786106e-38
-6.332958698 -7.125080109 -5.503725052 2.240786106e-38
-6.292386055 -7.137007236 -5.493353367 2.240786106e-38
-6.262451172 -7.160883904 -5.492308617 2.240786106e-38
-6.247170925 -7.201634407 -5.504261971 2.240786106e-38
-6.22076416 -7.229696751 -5.506550312 2.240786106e-38
-6.185623646 -7.247590065 -5.501193047 2.240786106e-38
-6.091523647 -7.314157486 -5.495557785 2.240786106e-38
-5.866869926 -7.523773193 -5.508393764 2.240786106e-38
-5.646297455 -7.676947117 -5.502001762 2.240786106e-38
-5.604967594 -7.685287952 -5.491787434 2.240786106e-38
-5.594072819 -7.735465527 -5.511529922 2.240786106e-38
-5.5188241 -7.762081146 -5.498702049 2.240786106e-38
-5.430582047 -7.769488811 -5.47284317 2.240786106e-38
-5.394915104 -7.852166653 -5.500351429 2.240786106e-38
-5.302185059 -7.920164108 -5.502784729 2.240786106e-38
-5.21454525 -7.996202469 -5.511518478 2.240786106e-38
-5.167182446 -7.993618011 -5.495378017 2.240786106e-38
-5.136528015 -8.016704559 -5.497008324 2.240786106e-38
-5.093938351 -8.021039009 -5.48589468 2.240786106e-38
-5.037520885 -8.074928284 -5.49487257 2.240786106e-38
-4.93241024 -8.122963905 -5.486682415 2.240786106e-38
-4.912406445 -8.163817406 -5.500893116 2.240786106e-38
-4.883905411 -8.190814018 -5.505809307 2.240786106e-38
-4.817321777 -8.153471947 -5.467648506 2.240786106e-38
-4.767602444 -8.219506264 -5.486045837 2.240786106e-38
-4.713659763 -8.279173851 -5.500401497 2.240786106e-38
-4.67172575 -8.28278923 -5.490279198 2.240786106e-38
-4.60979557 -8.328763962 -5.496009827 2.240786106e-38
-4.57834053 -8.35100174 -5.498493671 2.240786106e-38
-4.507018566 -8.3800354 -5.493575096 2.240786106e-38
-4.443800449 -8.424158096 -5.498896599 2.240786106e-38
-4.408993721 -8.44023037 -5.497776985 2.240786106e-38
-4.387115002 -8.481244087 -5.512959957 2.240786106e-38
-4.316903591 -8.512530327 -5.510557175 2.240786106e-38
-4.271138191 -8.506886482 -5.495744705 2.240786106e-38
-4.236114979 -8.522386551 -5.494713783 2.240786106e-38
-4.219644547 -8.575572968 -5.518024445 2.240786106e-38
-4.162109375 -8.545193672 -5.487665176 2.240786106e-38
-4.108398438 -8.610079765 -5.50794363 2.240786106e-38
-4.075892448 -8.631064415 -5.510842323 2.240786106e-38
-4.0278368 -8.618860245 -5.492666245 2.240786106e-38
-3.975584269 -8.68849659 -5.516495705 2.240786106e-38
-3.931106329 -8.683379173 -5.50316906 2.240786106e-38
-3.826255322 -8.730502129 -5.503386021 2.240786106e-38
-3.775690317 -8.7102108 -5.480985165 2.240786106e-38
-3.747116089 -8.740402222 -5.490462303 2.240786106e-38
-3.724940062 -8.786035538 -5.50967598 2.240786106e-38
-3.673904419 -8.763520241 -5.486249447 2.240786106e-38
-3.543680668 -8.849330902 -5.503582001 2.240786106e-38
-3.500391006 -8.844071388 -5.491517067 2.240786106e-38
-3.461898327 -8.850631714 -5.486904144 2.240786106e-38
-3.402558804 -8.909415245 -5.506210804 2.240786106e-38
-3.3583529 -8.900856018 -5.492530823 2.240786106e-38
-3.323564291 -8.917019844 -5.494216442 2.240786106e-38
-3.220211029 -8.968776703 -5.501778603 2.240786106e-38
-3.189673424 -8.997286797 -5.511356831 2.240786106e-38
-3.141163111 -8.974851608 -5.489834309 2.240786106e-38
-3.102711916 -8.980592728 -5.485672951 2.240786106e-38
-3.070801735 -9.005374908 -5.493228436 2.240786106e-38
-3.045670033 -9.050609589 -5.51330471 2.240786106e-38
-2.965056181 -9.051141739 -5.498931885 2.240786106e-38
-2.866294384 -9.119980812 -5.519351006 2.240786106e-38
-2.820455313 -9.10188961 -5.5014925 2.240786106e-38
-2.780783653 -9.103136063 -5.495445728 2.240786106e-38
-2.708257914 -9.127707481 -5.496954441 2.240786106e-38
-2.674095154 -9.147242546 -5.502202034 2.240786106e-38
-2.59853673 -9.161646843 -5.498123169 2.240786106e-38
-2.451575518 -9.20483017 -5.499668121 2.240786106e-38
-2.415521622 -9.218294144 -5.501866341 2.240786106e-38
-2.368923664 -9.190993309 -5.479845047 2.240786106e-38
-2.192343473 -9.273222923 -5.50148201 2.240786106e-38
-2.115642309 -9.281437874 -5.496087074 2.240786106e-38
-2.087958336 -9.332968712 -5.521587849 2.240786106e-38
-2.001163721 -9.295156479 -5.489522934 2.240786106e-38
-1.967965126 -9.322958946 -5.501224995 2.240786106e-38
-1.923410535 -9.296676636 -5.481103897 2.240786106e-38
-1.855643511 -9.347249031 -5.501951218 2.240786106e-38
-1.822928548 -9.379753113 -5.51672411 2.240786106e-38
-1.704935789 -9.374951363 -5.5014081 2.240786106e-38
-1.669139624 -9.39248085 -5.507714272 2.240786106e-38
-1.627650142 -9.377660751 -5.495141029 2.240786106e-38
-1.59057343 -9.387872696 -5.497332573 2.240786106e-38
-1.554385304 -9.40367794 -5.502880573 2.240786106e-38
-1.518056393 -9.419114113 -5.508290768 2.240786106e-38
-1.484023571 -9.449580193 -5.522586823 2.240786106e-38
-1.437527895 -9.399884224 -5.490120411 2.240786106e-38
-1.403980136 -9.434203148 -5.506813526 2.240786106e-38
-1.213316798 -9.454521179 -5.503335476 2.240786106e-38
-1.172847629 -9.439538002 -5.49182415 2.240786106e-38
-0.9866804481 -9.4976511 -5.512991905 2.240786106e-38
-0.9446461201 -9.463006973 -5.490629673 2.240786106e-38
-0.9067867398 -9.468767166 -5.491802216 2.240786106e-38
-0.8305676579 -9.475085258 -5.4914217 2.240786106e-38
-0.7951567769 -9.510414124 -5.509996891 2.240786106e-38
-0.7537789345 -9.4740448 -5.487136364 2.240786106e-38
-0.679109931 -9.501178741 -5.499502659 2.240786106e-38
-0.6399639249 -9.489830017 -5.491398811 2.240786106e-38
-0.6020672917 -9.496335983 -5.493720055 2.240786106e-38
-0.5642709136 -9.505125999 -5.497447014 2.240786106e-38
-0.4101745486 -9.485545158 -5.481599808 2.240786106e-38
-0.3711814284 -9.465251923 -5.46896553 2.240786106e-38
-0.2945134342 -9.449973106 -5.458591938 2.240786106e-38
-0.2588710487 -9.537690163 -5.508615494 2.240786106e-38
-0.2193113416 -9.486071587 -5.478249073 2.240786106e-38
-0.1814353317 -9.50045681 -5.48609066 2.240786106e-38
-0.1431139708 -9.492403984 -5.481064796 2.240786106e-38
-0.06674197316 -9.486644745 -5.477253437 2.240786106e-38
0.009520242922 -9.478196144 -5.472240925 2.240786106e-38
0.04795011878 -9.542830467 -5.509622574 2.240786106e-38
0.1617622674 -9.467424393 -5.46682024 2.240786106e-38
0.2003158182 -9.490412712 -5.480513573 2.240786106e-38
0.2772772908 -9.511273384 -5.49367094 2.240786106e-38
0.3146693707 -9.484804153 -5.479066372 2.240786106e-38
0.3532651961 -9.49600029 -5.486310482 2.240786106e-38
0.3916406631 -9.499539375 -5.489221096 2.240786106e-38
0.4677793682 -9.491699219 -5.48668623 2.240786106e-38
0.5448939204 -9.501907349 -5.494941711 2.240786106e-38
0.620164156 -9.480337143 -5.485173702 2.240786106e-38
0.6587390304 -9.484514236 -5.489077568 2.240786106e-38
0.6965231299 -9.477274895 -5.486461639 2.240786106e-38
0.7354115844 -9.484599113 -5.49237299 2.240786106e-38
0.7698901892 -9.43693924 -5.466514587 2.240786106e-38
0.8134388924 -9.499400139 -5.504547596 2.240786106e-38
0.8487189412 -9.463666916 -5.485777855 2.240786106e-38
0.9573901892 -9.399796486 -5.455051899 2.240786106e-38
1.004296064 -9.482012749 -5.505063057 2.240786106e-38
1.113838434 -9.429148674 -5.481775284 2.240786106e-38
1.149024248 -9.402389526 -5.468856812 2.240786106e-38
1.227923632 -9.418504715 -5.483798027 2.240786106e-38
1.262670755 -9.390394211 -5.470338345 2.240786106e-38
1.338109136 -9.379826546 -5.470274925 2.240786106e-38
1.376280785 -9.377634048 -5.472177982 2.240786106e-38
1.49284029 -9.382774353 -5.485283375 2.240786106e-38
1.601735473 -9.339912415 -5.471122265 2.240786106e-38
1.673839092 -9.310380936 -5.461530685 2.240786106e-38
1.719137907 -9.346446991 -5.486697197 2.240786106e-38
1.760147572 -9.357804298 -5.497473717 2.240786106e-38
1.783893108 -9.27857399 -5.455094814 2.240786106e-38
1.865214467 -9.297726631 -5.474995613 2.240786106e-38
1.979138017 -9.283621788 -5.480348587 2.240786106e-38
2.013723373 -9.263126373 -5.47298336 2.240786106e-38
2.055942297 -9.277513504 -5.486319542 2.240786106e-38
2.092221022 -9.26474762 -5.483700275 2.240786106e-38
2.119804859 -9.214320183 -5.458856106 2.240786106e-38
2.168577433 -9.255890846 -5.488605499 2.240786106e-38
2.23946619 -9.223903656 -5.480136871 2.240786106e-38
2.306436539 -9.1772995 -5.463287354 2.240786106e-38
2.386753798 -9.183897972 -5.478461742 2.240786106e-38
2.420506239 -9.162319183 -5.471347332 2.240786106e-38
2.495154381 -9.146449089 -5.473674297 2.240786106e-38
2.528933525 -9.125617981 -5.467249393 2.240786106e-38
2.573117971 -9.142096519 -5.48327446 2.240786106e-38
2.606941938 -9.121537209 -5.477183819 2.240786106e-38
2.651152372 -9.137042046 -5.49285078 2.240786106e-38
2.685561895 -9.118487358 -5.488140106 2.240786106e-38
2.752284765 -9.075175285 -5.475215912 2.240786106e-38
2.792357206 -9.07576561 -5.482297421 2.240786106e-38
2.818046808 -9.029953003 -5.461425781 2.240786106e-38
2.93479085 -9.020053864 -5.476446629 2.240786106e-38
2.972007275 -9.011173248 -5.478263378 2.240786106e-38
3.006850004 -8.995079041 -5.475784302 2.240786106e-38
3.108862638 -8.940208435 -5.464807987 2.240786106e-38
3.141545296 -8.918475151 -5.459197998 2.240786106e-38
3.19709444 -8.961051941 -5.493084908 2.240786106e-38
3.25848937 -8.906216621 -5.475355625 2.240786106e-38
3.32637763 -8.870119095 -5.469425201 2.240786106e-38
3.47258997 -8.825689316 -5.475754261 2.240786106e-38
3.509784222 -8.816038132 -5.478479385 2.240786106e-38
3.571922779 -8.766371727 -5.465284348 2.240786106e-38
3.605072975 -8.746928215 -5.462153912 2.240786106e-38
3.711267471 -8.705107689 -5.463591576 2.240786106e-38
3.749853134 -8.698522568 -5.468876362 2.240786106e-38
3.789839268 -8.694952011 -5.476163864 2.240786106e-38
3.829550505 -8.690529823 -5.483029366 2.240786106e-38
3.953867197 -8.595376015 -5.462404728 2.240786106e-38
4.031407356 -8.581536293 -5.474031448 2.240786106e-38
4.0767169 -8.588093758 -5.488626003 2.240786106e-38
4.103169441 -8.554899216 -5.477904797 2.240786106e-38
4.125789165 -8.514118195 -5.462369919 2.240786106e-38
4.201766968 -8.496144295 -5.472335339 2.240786106e-38
4.230292797 -8.467990875 -5.465110302 2.240786106e-38
4.268028736 -8.458312035 -5.469892025 2.240786106e-38
4.303469181 -8.443977356 -5.471765041 2.240786106e-38
4.32938242 -8.411063194 -5.461670876 2.240786106e-38
4.411408901 -8.403697968 -5.479742527 2.240786106e-38
4.438040733 -8.372467995 -5.470967293 2.240786106e-38
4.476356983 -8.36333847 -5.476714611 2.240786106e-38
4.502622128 -8.331725121 -5.467824459 2.240786106e-38
4.575149059 -8.305581093 -5.474632263 2.240786106e-38
4.623749733 -8.314535141 -5.492738724 2.240786106e-38
4.703371525 -8.222661018 -5.469120979 2.240786106e-38
4.743320942 -8.215691566 -5.47712326 2.240786106e-38
4.773705959 -8.192094803 -5.474143028 2.240786106e-38
4.925805092 -8.075502396 -5.461297512 2.240786106e-38
4.989185333 -8.033400536 -5.459774494 2.240786106e-38
5.027901649 -8.023588181 -5.466802597 2.240786106e-38
5.066655636 -8.013663292 -5.473871231 2.240786106e-38
5.140534401 -7.987611771 -5.484129906 2.240786106e-38
5.190769196 -7.924919605 -5.469565868 2.240786106e-38
5.273815155 -7.912180424 -5.489861488 2.240786106e-38
5.289137363 -7.866466045 -5.472851276 2.240786106e-38
5.344018459 -7.811713696 -5.464476109 2.240786106e-38
5.383975029 -7.802629471 -5.473218441 2.240786106e-38
5.415177345 -7.780743599 -5.473091125 2.240786106e-38
5.446211815 -7.758629799 -5.472889423 2.240786106e-38
5.518670559 -7.728956699 -5.483082294 2.240786106e-38
5.537322521 -7.689531803 -5.470859051 2.240786106e-38
5.590468884 -7.697890759 -5.492748737 2.240786106e-38
5.598178387 -7.643681049 -5.470086575 2.240786106e-38
5.703754425 -7.594004154 -5.483360767 2.240786106e-38
5.745172501 -7.522426128 -5.46485424 2.240786106e-38
5.836212158 -7.515594006 -5.49380064 2.240786106e-38
5.903912544 -7.416380882 -5.472930908 2.240786106e-38
5.928982258 -7.386738777 -5.468597889 2.240786106e-38
5.966707706 -7.372829437 -5.476016998 2.240786106e-38
6.047408581 -7.350889206 -5.49565649 2.240786106e-38
6.064059258 -7.311028004 -5.484033108 2.240786106e-38
6.100071907 -7.235274315 -5.463823795 2.240786106e-38
6.132666588 -7.214873791 -5.466991901 2.240786106e-38
6.165141582 -7.194272041 -5.470118999 2.240786106e-38
6.232125282 -7.15519619 -5.478330612 2.240786106e-38
6.241546631 -7.108115196 -5.461446285 2.240786106e-38
6.282739639 -7.097283363 -5.47248745 2.240786106e-38
6.334943771 -7.098549843 -5.493056297 2.240786106e-38
6.42321825 -6.968604565 -5.471721172 2.240786106e-38
6.442442894 -6.933322906 -5.4643116 2.240786106e-38
6.497898579 -6.881215096 -5.464239597 2.240786106e-38
6.538570881 -6.868763924 -5.475180626 2.240786106e-38
6.566303253 -6.842606068 -5.475325108 2.240786106e-38
6.625526905 -6.794135094 -5.47898531 2.240786106e-38
6.656226635 -6.770938873 -5.481817245 2.240786106e-38
6.666944504 -6.727535725 -5.468328476 2.240786106e-38
6.675697327 -6.682418823 -5.453427315 2.240786106e-38
6.740619183 -6.639770985 -5.462676048 2.240786106e-38
6.797747135 -6.589205742 -5.465865612 2.240786106e-38
6.830240726 -6.567648411 -5.47071743 2.240786106e-38
6.823551178 -6.508626461 -5.444357872 2.240786106e-38
6.918168545 -6.493469238 -5.478021145 2.240786106e-38
6.910045624 -6.433786869 -5.451063156 2.240786106e-38
6.944743156 -6.414162159 -5.458048344 2.240786106e-38
6.991885185 -6.405815125 -5.474817276 2.240786106e-38
7.066661835 -6.268327713 -5.45373106 2.240786106e-38
7.115355968 -6.260595322 -5.471843719 2.240786106e-38
7.128624916 -6.22160387 -5.462767601 2.240786106e-38
7.175704002 -6.212051868 -5.479666233 2.240786106e-38
7.199547291 -6.182237625 -5.478851318 2.240786106e-38
7.202579975 -6.134707451 -5.462348461 2.240786106e-38
7.243336201 -6.119353771 -5.474558353 2.240786106e-38
7.234966278 -6.062600613 -5.449764729 2.240786106e-38
7.263503551 -6.036984444 -5.452937603 2.240786106e-38
7.305106163 -6.022073746 -5.465951443 2.240786106e-38
7.345871925 -6.006242752 -5.47834301 2.240786106e-38
7.402489662 -5.905029297 -5.467059135 2.240786106e-38
7.44447279 -5.841197491 -5.463200569 2.240786106e-38
7.468512058 -5.811705112 -5.463652134 2.240786106e-38
7.49449873 -5.783710003 -5.465610504 2.240786106e-38
7.51486969 -5.751378059 -5.463562489 2.240786106e-38
7.56135416 -5.738900185 -5.480542183 2.240786106e-38
7.568181515 -5.696276665 -5.468847275 2.240786106e-38
7.61861372 -5.686410904 -5.488732338 2.240786106e-38
7.61668396 -5.590181828 -5.454779148 2.240786106e-38
7.691700935 -5.597803593 -5.49234581 2.240786106e-38
7.687503815 -5.500759125 -5.457595825 2.240786106e-38
7.728406429 -5.48319006 -5.470942497 2.240786106e-38
7.743801594 -5.447436333 -5.466286659 2.240786106e-38
7.806715488 -5.398397446 -5.479883671 2.240786106e-38
7.79795742 -5.346138 -5.458612919 2.240786106e-38
7.865936756 -5.346388817 -5.491108418 2.240786106e-38
7.856823444 -5.294138908 -5.469841003 2.240786106e-38
7.85738802 -5.248717308 -5.455503464 2.240786106e-38
7.915841103 -5.241869926 -5.481415272 2.240786106e-38
7.905596256 -5.189488411 -5.45982933 2.240786106e-38
7.952338696 -5.129160404 -5.463451862 2.240786106e-38
8.000237465 -5.069446564 -5.46818018 2.240786106e-38
8.060198784 -5.017077446 -5.481419086 2.240786106e-38
8.064725876 -4.975026608 -5.470850945 2.240786106e-38
8.099967957 -4.951929569 -5.48121357 2.240786106e-38
8.104135513 -4.909825325 -5.470630169 2.240786106e-38
8.122430801 -4.876377106 -5.469697475 2.240786106e-38
8.154370308 -4.80679512 -5.465010166 2.240786106e-38
8.188937187 -4.73886919 -5.462463856 2.240786106e-38
8.217430115 -4.7113657 -5.468793869 2.240786106e-38
8.228697777 -4.673975945 -5.46374321 2.240786106e-38
8.233567238 -4.633057594 -5.454562187 2.240786106e-38
8.271977425 -4.611000538 -5.467699051 2.240786106e-38
8.291054726 -4.534652233 -5.456035137 2.240786106e-38
8.317584991 -4.505815506 -5.461527348 2.240786106e-38
8.369134903 -4.490318775 -5.483477592 2.240786106e-38
8.371255875 -4.405149937 -5.461484432 2.240786106e-38
8.394471169 -4.374363422 -5.465115547 2.240786106e-38
8.405387878 -4.337177753 -5.46082592 2.240786106e-38
8.45751667 -4.321111679 -5.483359814 2.240786106e-38
8.479532242 -4.246741295 -5.47532177 2.240786106e-38
8.495667458 -4.21218729 -5.474761486 2.240786106e-38
8.500095367 -4.129578114 -5.456040382 2.240786106e-38
8.566383362 -4.11930275 -5.4879179 2.240786106e-38
8.537547112 -4.063256741 -5.45893383 2.240786106e-38
8.590940475 -4.004275799 -5.472315311 2.240786106e-38
8.633102417 -3.981910467 -5.488759518 2.240786106e-38
8.631789207 -3.897359371 -5.467934608 2.240786106e-38
8.685742378 -3.879714012 -5.492240429 2.240786106e-38
8.635827065 -3.815859556 -5.450921059 2.240786106e-38
8.702271461 -3.803423882 -5.48322916 2.240786106e-38
8.699472427 -3.760654926 -5.471859455 2.240786106e-38
8.717429161 -3.726846457 -5.473740578 2.240786106e-38
8.744287491 -3.696905613 -5.481146812 2.240786106e-38
8.749729156 -3.616538525 -5.466176033 2.240786106e-38
8.754376411 -3.577325344 -5.460055828 2.240786106e-38
8.810968399 -3.518053055 -5.477528572 2.240786106e-38
