# .PCD v0.7 - Point Cloud Data file format
VERSION 0.7
FIELDS x y z rgb
SIZE 4 4 4 4
TYPE F F F F
COUNT 1 1 1 1
WIDTH 889
HEIGHT 1
VIEWPOINT 0 0 0 1 0 0 0
POINTS 889
DATA ascii
8.919718742 -11.97568703 -5.339954853 2.194868358e-38
9.063626289 -11.8674221 -5.340034485 2.194868358e-38
9.113677979 -11.83403587 -5.341453552 2.194868358e-38
9.229188919 -11.78675652 -5.353435993 2.194868358e-38
9.276801109 -11.7499485 -5.353611469 2.194868358e-38
9.380161285 -11.68644333 -5.358861446 2.194868358e-38
9.409078598 -11.62641716 -5.348639488 2.194868358e-38
9.497070313 -11.54409981 -5.345726967 2.194868358e-38
9.548624039 -11.51211548 -5.348649979 2.194868358e-38
9.606601715 -11.48772717 -5.355210304 2.194868358e-38
9.765551567 -11.3033886 -5.341803551 2.194868358e-38
9.825735092 -11.28106117 -5.349871159 2.194868358e-38
9.901846886 -11.18558311 -5.342175484 2.194868358e-38
9.997166634 -11.11194897 -5.345227718 2.194868358e-38
10.07739925 -11.02161503 -5.34057188 2.194868358e-38
10.14979267 -11.01156807 -5.35543251 2.194868358e-38
10.171525 -10.94651985 -5.343638897 2.194868358e-38
10.24265862 -10.9345932 -5.357873917 2.194868358e-38
10.31859589 -10.83965588 -5.351834774 2.194868358e-38
10.39458275 -10.74516487 -5.346265793 2.194868358e-38
10.47697449 -10.65752888 -5.34440136 2.194868358e-38
10.53203392 -10.62774086 -5.350648403 2.194868358e-38
10.63307476 -10.55854321 -5.358679771 2.194868358e-38
10.63629532 -10.47715759 -5.339034557 2.194868358e-38
10.75006962 -10.42025471 -5.353915691 2.194868358e-38
10.77145386 -10.35732651 -5.343790054 2.194868358e-38
10.88597107 -10.30028439 -5.359341621 2.194868358e-38
10.91534233 -10.2452383 -5.353482723 2.194868358e-38
10.94157028 -10.1874342 -5.346215725 2.194868358e-38
11.01707268 -10.0935955 -5.343285561 2.194868358e-38
11.27968121 -9.844413757 -5.353861809 2.194868358e-38
11.29177666 -9.7753582 -5.340955257 2.194868358e-38
11.33449554 -9.732908249 -5.342608452 2.194868358e-38
11.38181877 -9.694312096 -5.346501827 2.194868358e-38
11.64563179 -9.67914772 -5.415196419 2.194868358e-38
11.74615479 -9.683099747 -5.44379282 2.194868358e-38
11.83660221 -9.678007126 -5.467637062 2.194868358e-38
11.92493153 -9.670514107 -5.490439892 2.194868358e-38
11.99496078 -9.647627831 -5.504778862 2.194868358e-38
12.10292721 -9.496393204 -5.501367092 2.194868358e-38
12.12316418 -9.433766365 -5.493281841 2.194868358e-38
12.26676369 -9.310188293 -5.507072449 2.194868358e-38
12.35745716 -9.146276474 -5.497867107 2.194868358e-38
12.37038803 -9.079102516 -5.487334728 2.194868358e-38
12.42944908 -9.045800209 -5.49736166 2.194868358e-38
12.46360874 -8.994231224 -5.496433258 2.194868358e-38
12.51083088 -8.952050209 -5.501343727 2.194868358e-38
12.54878426 -8.903154373 -5.502251148 2.194868358e-38
12.74424648 -8.587414742 -5.495520592 2.194868358e-38
12.78896141 -8.54298687 -5.499949455 2.194868358e-38
12.83908558 -8.502035141 -5.506764412 2.194868358e-38
12.82911301 -8.421441078 -5.487925053 2.194868358e-38
12.95029354 -8.352786064 -5.510854721 2.194868358e-38
12.96246338 -8.287037849 -5.501810551 2.194868358e-38
13.00935268 -8.243533134 -5.50760603 2.194868358e-38
13.1050148 -8.011766434 -5.49284935 2.194868358e-38
13.25719452 -7.814776897 -5.503247261 2.194868358e-38
13.2851944 -7.759480953 -5.501875401 2.194868358e-38
13.29920292 -7.696142673 -5.494819641 2.194868358e-38
13.34043503 -7.577475548 -5.486508846 2.194868358e-38
13.41120529 -7.546538353 -5.503094196 2.194868358e-38
13.43398285 -7.488405704 -5.500041485 2.194868358e-38
13.4684248 -7.366306782 -5.489718914 2.194868358e-38
13.52585316 -7.327226162 -5.501074314 2.194868358e-38
13.55178642 -7.270968914 -5.499691486 2.194868358e-38
13.63066959 -7.17276001 -5.508118629 2.194868358e-38
13.7043972 -7.001834393 -5.503391266 2.194868358e-38
13.76765347 -6.826049805 -5.495334148 2.194868358e-38
13.82446194 -6.716294289 -5.496276379 2.194868358e-38
13.91227818 -6.552773476 -5.499368668 2.194868358e-38
13.91554737 -6.486083031 -5.490311146 2.194868358e-38
13.9428606 -6.430709839 -5.490842342 2.194868358e-38
13.97953701 -6.37961483 -5.49514246 2.194868358e-38
13.9829998 -6.313391209 -5.486483574 2.194868358e-38
14.03045464 -6.267043114 -5.495172501 2.194868358e-38
14.08712387 -6.089647293 -5.488205433 2.194868358e-38
14.14235973 -6.046179295 -5.500211239 2.194868358e-38
14.18510437 -5.997116566 -5.507414341 2.194868358e-38
14.19255257 -5.933128834 -5.500999928 2.194868358e-38
14.2052784 -5.871477604 -5.496738911 2.194868358e-38
14.27515984 -5.699788094 -5.496781826 2.194868358e-38
14.29539776 -5.641349316 -5.495797157 2.194868358e-38
14.29135323 -5.573448658 -5.485583782 2.194868358e-38
14.32742882 -5.521271229 -5.490867615 2.194868358e-38
14.38721657 -5.411879063 -5.496929169 2.194868358e-38
14.44527245 -5.301534653 -5.502652168 2.194868358e-38
14.48203564 -5.249067307 -5.508573055 2.194868358e-38
14.45487022 -5.173569679 -5.490279675 2.194868358e-38
14.47124481 -5.113904476 -5.488647461 2.194868358e-38
14.52167797 -5.066146374 -5.500003815 2.194868358e-38
14.52596283 -5.002240181 -5.493970871 2.194868358e-38
14.55669594 -4.947452068 -5.498025894 2.194868358e-38
14.63510609 -4.843208313 -5.512755871 2.194868358e-38
14.61324024 -4.770876408 -5.497245789 2.194868358e-38
14.62169933 -4.70868206 -5.493267059 2.194868358e-38
14.65140915 -4.653329372 -5.497357368 2.194868358e-38
14.7040596 -4.475570202 -5.496460438 2.194868358e-38
14.76524544 -4.300338268 -5.499546051 2.194868358e-38
14.7951107 -4.244585514 -5.504268646 2.194868358e-38
14.79985237 -4.181623459 -5.499733925 2.194868358e-38
14.79722309 -4.116729736 -5.492562294 2.194868358e-38
14.79517174 -4.052139282 -5.485710144 2.194868358e-38
14.8374548 -3.999676466 -5.495382786 2.194868358e-38
14.90836334 -3.954576015 -5.515712738 2.194868358e-38
14.87970638 -3.883005619 -5.49929142 2.194868358e-38
14.92253304 -3.830191135 -5.509384632 2.194868358e-38
14.96671009 -3.586037159 -5.503690243 2.194868358e-38
14.97747517 -3.525021076 -5.50239563 2.194868358e-38
14.98707771 -3.400337934 -5.495700836 2.194868358e-38
15.01020813 -3.278925896 -5.494338989 2.194868358e-38
15.02066135 -3.21800065 -5.493386269 2.194868358e-38
15.02332687 -3.155467033 -5.489675999 2.194868358e-38
15.0705328 -2.976078033 -5.493409634 2.194868358e-38
15.10072803 -2.730531454 -5.48770237 2.194868358e-38
15.16237164 -2.615972519 -5.502281666 2.194868358e-38
15.18640804 -2.557292223 -5.507228851 2.194868358e-38
15.16659737 -2.491303921 -5.496369839 2.194868358e-38
15.17917728 -2.368204117 -5.493851662 2.194868358e-38
15.24381351 -2.252900839 -5.510510921 2.194868358e-38
15.20739937 -2.185085773 -5.494126797 2.194868358e-38
15.23994827 -2.127274513 -5.50275135 2.194868358e-38
15.25415134 -2.066766977 -5.504836082 2.194868358e-38
15.25265789 -2.004162073 -5.501345634 2.194868358e-38
15.2562933 -1.942271829 -5.499796391 2.194868358e-38
15.26360703 -1.880890727 -5.49966383 2.194868358e-38
15.26726913 -1.81906724 -5.49830246 2.194868358e-38
15.27227211 -1.757427692 -5.497513771 2.194868358e-38
15.3137989 -1.699849248 -5.509957314 2.194868358e-38
15.29423523 -1.635469437 -5.500511646 2.194868358e-38
15.29065132 -1.572942376 -5.49690485 2.194868358e-38
15.2773056 -1.38559711 -5.485700607 2.194868358e-38
15.33813095 -1.266868353 -5.503704548 2.194868358e-38
15.33481884 -1.204560041 -5.500733852 2.194868358e-38
15.3337698 -1.142476797 -5.498666763 2.194868358e-38
15.35184097 -1.081779957 -5.503540516 2.194868358e-38
15.38479328 -1.021959543 -5.513839245 2.194868358e-38
15.35856056 -0.9582244158 -5.503010273 2.194868358e-38
15.40210724 -0.8366786242 -5.51602459 2.194868358e-38
15.3941021 -0.7742001414 -5.512000084 2.194868358e-38
15.32593346 -0.709015727 -5.486526966 2.194868358e-38
15.36618042 -0.6489840746 -5.499955654 2.194868358e-38
15.35960865 -0.4632287025 -5.495206356 2.194868358e-38
15.4205265 -0.4030224681 -5.516374588 2.194868358e-38
15.40253448 -0.1547996849 -5.508336067 2.194868358e-38
15.34852886 -0.09255602956 -5.488844395 2.194868358e-38
15.36850643 -0.03089492209 -5.495900154 2.194868358e-38
15.40914726 0.03096683323 -5.510433197 2.194868358e-38
15.35604668 0.0925867632 -5.49153471 2.194868358e-38
15.3639164 0.2161769271 -5.494791985 2.194868358e-38
15.38246727 0.2782931626 -5.501780033 2.194868358e-38
15.43140793 0.3412443101 -5.519732475 2.194868358e-38
15.39739799 0.4024082124 -5.50810051 2.194868358e-38
15.36034107 0.4632407725 -5.495464802 2.194868358e-38
15.35970592 0.7105731368 -5.498616219 2.194868358e-38
15.37986279 0.7734691501 -5.506900311 2.194868358e-38
15.34355545 0.8334981799 -5.495056629 2.194868358e-38
15.33160877 0.9565282464 -5.493353367 2.194868358e-38
15.34018898 1.018991709 -5.497853279 2.194868358e-38
15.33656216 1.142665505 -5.499668121 2.194868358e-38
15.32241726 1.26557529 -5.498065948 2.194868358e-38
15.30976105 1.388540745 -5.497354507 2.194868358e-38
15.30491447 1.450149417 -5.497660637 2.194868358e-38
15.29445648 1.511206865 -5.496042728 2.194868358e-38
15.28028965 1.571866393 -5.493178368 2.194868358e-38
15.28077412 1.634034634 -5.495669842 2.194868358e-38
15.25968647 1.818149209 -5.49557209 2.194868358e-38
15.25538254 2.004510641 -5.502328873 2.194868358e-38
15.22868919 2.063318014 -5.495650291 2.194868358e-38
15.25737476 2.129687786 -5.50904417 2.194868358e-38
15.23925972 2.189649105 -5.505637169 2.194868358e-38
15.17381763 2.367357731 -5.491910934 2.194868358e-38
15.20645142 2.435101509 -5.507219791 2.194868358e-38
15.14848137 2.48831749 -5.489802837 2.194868358e-38
15.13179684 2.548091412 -5.487425327 2.194868358e-38
15.17560768 2.61824131 -5.507084846 2.194868358e-38
15.14547539 2.675785065 -5.500008106 2.194868358e-38
15.13250446 2.799136639 -5.503294945 2.194868358e-38
15.14522839 2.864507198 -5.512064934 2.194868358e-38
15.11535549 2.921843052 -5.505423546 2.194868358e-38
15.08568859 3.105273962 -5.507856369 2.194868358e-38
15.03837872 3.158614635 -5.495177269 2.194868358e-38
14.99400425 3.212284803 -5.483637333 2.194868358e-38
15.01337528 3.34290266 -5.500373363 2.194868358e-38
14.97334671 3.397212982 -5.490665913 2.194868358e-38
14.98695755 3.463708162 -5.500717163 2.194868358e-38
14.98044682 3.525700331 -5.503486633 2.194868358e-38
14.97699738 3.588502884 -5.507474422 2.194868358e-38
14.94599819 3.644659042 -5.501416206 2.194868358e-38
14.92186069 3.702381134 -5.497967243 2.194868358e-38
14.86166286 3.814552307 -5.486910343 2.194868358e-38
14.85746098 3.877207756 -5.491066456 2.194868358e-38
14.86477947 3.943005323 -5.499588013 2.194868358e-38
14.86609173 4.007387161 -5.505990028 2.194868358e-38
14.82752132 4.060993671 -5.497703552 2.194868358e-38
14.84580326 4.130225658 -5.510594845 2.194868358e-38
14.80034637 4.181754112 -5.499918461 2.194868358e-38
14.75762367 4.298099041 -5.496706963 2.194868358e-38
14.70469379 4.475746632 -5.496695518 2.194868358e-38
14.70555687 4.540680885 -5.503796577 2.194868358e-38
14.68071365 4.597740173 -5.501374722 2.194868358e-38
14.64469433 4.716082096 -5.501912117 2.194868358e-38
14.61803913 4.772435665 -5.4990592 2.194868358e-38
14.59331512 4.829369068 -5.497014046 2.194868358e-38
14.56216526 4.949297428 -5.500087261 2.194868358e-38
14.56803226 5.01671648 -5.50988102 2.194868358e-38
14.55801582 5.078815937 -5.513769627 2.194868358e-38
14.4882679 5.119914532 -5.495102882 2.194868358e-38
14.44040775 5.299732685 -5.500786781 2.194868358e-38
14.40906334 5.354057312 -5.497006893 2.194868358e-38
14.39860821 5.416144848 -5.501281738 2.194868358e-38
14.29958725 5.576661587 -5.488746166 2.194868358e-38
14.33510017 5.656997204 -5.511060238 2.194868358e-38
14.25855064 5.693135738 -5.490385532 2.194868358e-38
14.22093773 5.811116219 -5.493715763 2.194868358e-38
14.19419479 5.933805943 -5.501636505 2.194868358e-38
14.13886547 5.977566719 -5.489460945 2.194868358e-38
14.12397861 6.038308144 -5.493059635 2.194868358e-38
14.08390713 6.223116398 -5.50626564 2.194868358e-38
13.95085239 6.231472969 -5.463993073 2.194868358e-38
13.83586979 6.246952057 -5.42875433 2.194868358e-38
13.69062996 6.247749329 -5.381577969 2.194868358e-38
13.54817677 6.314842224 -5.345362663 2.194868358e-38
13.52421093 6.36998415 -5.345972061 2.194868358e-38
13.4634285 6.474119186 -5.342354774 2.194868358e-38
13.43484974 6.526988983 -5.341375828 2.194868358e-38
13.4214344 6.587292194 -5.346524239 2.194868358e-38
13.36912155 6.628435135 -5.336257458 2.194868358e-38
13.34856224 6.685239315 -5.338737011 2.194868358e-38
13.33473015 6.745490074 -5.344006062 2.194868358e-38
13.27189541 6.915954113 -5.351860046 2.194868358e-38
13.19402695 7.010841846 -5.343019009 2.194868358e-38
13.1860857 7.074742317 -5.351277828 2.194868358e-38
13.13788414 7.117047787 -5.343285084 2.194868358e-38
13.11532784 7.17317915 -5.345795155 2.194868358e-38
13.08972454 7.296491146 -5.35909605 2.194868358e-38
13.03812027 7.336585522 -5.350002289 2.194868358e-38
12.91486454 7.473713875 -5.336024284 2.194868358e-38
12.93053913 7.552329063 -5.355000496 2.194868358e-38
12.85762787 7.579222202 -5.337379932 2.194868358e-38
12.79148197 7.749601364 -5.348330975 2.194868358e-38
12.72582436 7.779929161 -5.333913326 2.194868358e-38
12.73481655 7.855927467 -5.350874424 2.194868358e-38
12.63761711 8.00796032 -5.350225925 2.194868358e-38
12.4901762 8.198946953 -5.342934608 2.194868358e-38
12.46597004 8.25494194 -5.346731186 2.194868358e-38
12.41793633 8.295140266 -5.340386391 2.194868358e-38
12.42202282 8.370285034 -5.356575489 2.194868358e-38
12.31275463 8.514344215 -5.35334444 2.194868358e-38
12.22239494 8.597933769 -5.343941212 2.194868358e-38
12.16560936 8.705034256 -5.349541664 2.194868358e-38
11.74194431 8.473465919 -5.178188324 2.204051908e-38
12.09431362 8.801902771 -5.34913826 2.194868358e-38
11.52154922 8.456110954 -5.110805035 2.204051908e-38
11.89749241 9.0299263 -5.341290951 2.194868358e-38
11.8951416 9.103736877 -5.356621742 2.194868358e-38
11.81141949 9.191184044 -5.352026463 2.194868358e-38
11.73179436 9.281619072 -5.349589348 2.194868358e-38
11.70657444 9.338418961 -5.355160713 2.194868358e-38
11.6685791 9.385107994 -5.35499239 2.194868358e-38
11.64416409 9.44282341 -5.361169815 2.194868358e-38
11.59184361 9.477883339 -5.354576588 2.194868358e-38
11.5136261 9.491415977 -5.336028576 2.194868358e-38
11.47216988 9.613201141 -5.352462292 2.194868358e-38
10.0232048 8.46784687 -4.692270279 2.213235457e-38
11.34445953 9.741438866 -5.347302437 2.194868358e-38
11.26354694 9.83039856 -5.34624815 2.194868358e-38
9.646430016 8.487600327 -4.59484148 2.213235457e-38
9.568879128 8.487857819 -4.574119091 2.222419007e-38
9.462955475 8.462111473 -4.5397048 2.222419007e-38
11.0973053 10.00418377 -5.343013287 2.194868358e-38
11.0744791 10.06459522 -5.351459503 2.194868358e-38
10.94663239 10.19214535 -5.348691463 2.194868358e-38
10.87963676 10.29429436 -5.356223583 2.194868358e-38
10.75911903 10.34547234 -5.337665558 2.194868358e-38
10.75146198 10.42160988 -5.354609966 2.194868358e-38
10.68827343 10.44401264 -5.344003677 2.194868358e-38
10.66640568 10.50680256 -5.354146004 2.194868358e-38
10.63079929 10.55626392 -5.357531071 2.194868358e-38
10.60140324 10.61205578 -5.364173412 2.194868358e-38
10.54727459 10.6430912 -5.35838747 2.194868358e-38
10.47325134 10.65372086 -5.342498779 2.194868358e-38
10.42328548 10.68851376 -5.338886738 2.194868358e-38
10.38370705 10.82062054 -5.363001347 2.194868358e-38
10.2638464 10.86930752 -5.346058846 2.194868358e-38
10.23550224 10.92694855 -5.354130745 2.194868358e-38
10.13427639 10.99472427 -5.347245693 2.194868358e-38
10.06139851 11.0041151 -5.332094193 2.194868358e-38
10.00087166 11.11606026 -5.347204685 2.194868358e-38
9.934659004 11.13213921 -5.335686207 2.194868358e-38
9.918802261 11.20471954 -5.351320267 2.194868358e-38
9.869660378 11.2399292 -5.349142075 2.194868358e-38
9.816555023 11.27051735 -5.344873905 2.194868358e-38
9.789580345 11.33119774 -5.354945183 2.194868358e-38
9.749458313 11.3768816 -5.357971668 2.194868358e-38
9.712846756 11.42680931 -5.363051891 2.194868358e-38
9.631973267 11.42441559 -5.343711376 2.194868358e-38
9.514575005 11.56536484 -5.355576038 2.194868358e-38
9.382249832 11.68904972 -5.360055447 2.194868358e-38
9.320161819 11.70778179 -5.351429462 2.194868358e-38
9.287214279 11.76314259 -5.359623432 2.194868358e-38
9.123091698 11.84625053 -5.346968651 2.194868358e-38
9.095054626 11.90857506 -5.358551502 2.194868358e-38
9.037893295 11.93286419 -5.353090286 2.194868358e-38
8.88843441 12.0343504 -5.350141525 2.194868358e-38
8.827586174 12.05306149 -5.342639923 2.194868358e-38
8.783391953 12.0944109 -5.345273018 2.194868358e-38
8.697974205 12.18158627 -5.352721214 2.194868358e-38
8.645546913 12.21166706 -5.350626945 2.194868358e-38
8.554869652 12.29196548 -5.35549736 2.194868358e-38
8.466114044 12.37544823 -5.362043858 2.194868358e-38
8.404279709 12.39168072 -5.354393482 2.194868358e-38
8.295897484 12.44611073 -5.348918915 2.194868358e-38
8.249832153 12.48546886 -5.351538181 2.194868358e-38
8.15249157 12.55648136 -5.353706837 2.194868358e-38
8.051942825 12.62267494 -5.354154587 2.194868358e-38
7.953486443 12.69223309 -5.35636282 2.194868358e-38
7.885965824 12.69766521 -5.345230579 2.194868358e-38
7.855243206 12.76236439 -5.359134197 2.194868358e-38
7.703094482 12.86006165 -5.36075592 2.194868358e-38
7.590512276 12.90637589 -5.354449749 2.194868358e-38
7.368058205 13.00214767 -5.344334126 2.194868358e-38
7.274457932 13.08105564 -5.35255146 2.194868358e-38
7.232588768 13.12974072 -5.360537052 2.194868358e-38
6.951061249 13.24166298 -5.348097324 2.194868358e-38
6.846757889 13.3017292 -5.349954605 2.194868358e-38
6.681164742 13.37397003 -5.346206665 2.194868358e-38
6.645026684 13.43646145 -5.360470772 2.194868358e-38
6.467844009 13.48506069 -5.348349094 2.194868358e-38
6.318867207 13.59243679 -5.360321999 2.194868358e-38
6.198108196 13.61803532 -5.350592136 2.194868358e-38
6.092795372 13.67725086 -5.354436874 2.194868358e-38
5.817082405 13.79791164 -5.354812145 2.194868358e-38
5.707616329 13.84824848 -5.356363297 2.194868358e-38
5.652909756 13.87356091 -5.357322216 2.194868358e-38
5.593523502 13.88730145 -5.35390234 2.194868358e-38
5.483346462 13.93602371 -5.355518818 2.194868358e-38
5.427965641 13.95970631 -5.356189728 2.194868358e-38
5.366129398 13.96665668 -5.35053587 2.194868358e-38
5.306413651 13.97881603 -5.346980572 2.194868358e-38
5.194954872 14.02399063 -5.348111153 2.194868358e-38
5.138164043 14.04375076 -5.347725868 2.194868358e-38
5.088130474 14.08218002 -5.354526997 2.194868358e-38
5.033700466 14.10874176 -5.356886387 2.194868358e-38
4.854318142 14.14256954 -5.347116947 2.194868358e-38
4.74689436 14.20039177 -5.354374886 2.194868358e-38
4.688298702 14.21489716 -5.352696419 2.194868358e-38
4.636319637 14.24960423 -5.358702183 2.194868358e-38
4.468787193 14.31937504 -5.364282608 2.194868358e-38
4.414399147 14.34766293 -5.368190765 2.194868358e-38
4.338390827 14.30496788 -5.345646381 2.194868358e-38
4.239343643 14.39405823 -5.366029263 2.194868358e-38
4.167601585 14.36325741 -5.348257542 2.194868358e-38
4.112790108 14.39027023 -5.352116108 2.194868358e-38
4.065975189 14.44598961 -5.366717815 2.194868358e-38
4.000502586 14.43564701 -5.356855869 2.194868358e-38
3.94224143 14.45087719 -5.356585026 2.194868358e-38
3.885455132 14.4715929 -5.358428955 2.194868358e-38
3.818131685 14.45257664 -5.345664501 2.194868358e-38
3.717454195 14.54400539 -5.368249416 2.194868358e-38
3.584113359 14.50746727 -5.343957424 2.194868358e-38
3.529543638 14.53734207 -5.349691868 2.194868358e-38
3.480070114 14.589118 -5.36355257 2.194868358e-38
3.360601425 14.60768223 -5.36026907 2.194868358e-38
3.293588638 14.58446598 -5.346849442 2.194868358e-38
3.239899397 14.61997604 -5.355051517 2.194868358e-38
3.119416237 14.63227463 -5.350193977 2.194868358e-38
3.062521458 14.654006 -5.353597164 2.194868358e-38
3.001865864 14.65782261 -5.350539207 2.194868358e-38
2.943891525 14.67460346 -5.352303028 2.194868358e-38
2.769927263 14.72615433 -5.358529568 2.194868358e-38
2.711105824 14.73931599 -5.359309673 2.194868358e-38
2.652645826 14.75465298 -5.360964775 2.194868358e-38
2.593117476 14.76407623 -5.360560417 2.194868358e-38
2.534895182 14.7810936 -5.362995625 2.194868358e-38
2.478925467 14.81193829 -5.370526791 2.194868358e-38
2.407841444 14.75118256 -5.344944 2.194868358e-38
2.352962494 14.78861809 -5.355038166 2.194868358e-38
2.292063713 14.78877926 -5.351716042 2.194868358e-38
2.115190029 14.82680798 -5.355857849 2.194868358e-38
2.057027817 14.84572411 -5.359657764 2.194868358e-38
1.999659538 14.87117386 -5.365899563 2.194868358e-38
1.937366843 14.85997295 -5.359007835 2.194868358e-38
1.873718977 14.83674145 -5.347870827 2.194868358e-38
1.816190004 14.86161232 -5.354156971 2.194868358e-38
1.758239985 14.88410854 -5.3596735 2.194868358e-38
1.635679245 14.87189198 -5.3503685 2.194868358e-38
1.578328848 14.90151405 -5.358698368 2.194868358e-38
1.514418364 14.86849499 -5.344592094 2.194868358e-38
1.458803415 14.9170723 -5.359901905 2.194868358e-38
1.399897337 14.93431664 -5.364033699 2.194868358e-38
1.27684617 14.91069794 -5.351689339 2.194868358e-38
1.158029556 14.93478394 -5.356816292 2.194868358e-38
0.9767237902 14.93062115 -5.350712776 2.194868358e-38
0.9172540903 14.94341278 -5.353932381 2.194868358e-38
0.8581065536 14.96329784 -5.35977602 2.194868358e-38
0.7981703281 14.97088051 -5.361299992 2.194868358e-38
0.7379142046 14.97256947 -5.360793114 2.194868358e-38
0.6780735254 14.9831419 -5.363564014 2.194868358e-38
0.6173881292 14.97504234 -5.359734535 2.194868358e-38
0.5574085712 14.98323536 -5.361821175 2.194868358e-38
0.4960461557 14.95144653 -5.349687576 2.194868358e-38
0.4370604455 14.99191475 -5.36349678 2.194868358e-38
0.3758746088 14.9569416 -5.350401402 2.194868358e-38
0.3161127269 14.97578144 -5.356639862 2.194868358e-38
0.2554864585 14.95257759 -5.347932816 2.194868358e-38
0.07536542416 14.99768257 -5.363349438 2.194868358e-38
0.01504447777 14.96872616 -5.352926731 2.194868358e-38
-0.1657698452 14.99526024 -5.36274004 2.194868358e-38
-0.2863885164 14.99641705 -5.363805294 2.194868358e-38
-0.3470178545 15.01031494 -5.369231224 2.194868358e-38
-0.4675164819 15.00155735 -5.367270947 2.194868358e-38
-0.5264959335 14.96209049 -5.35386467 2.194868358e-38
-0.5440710187 13.87427425 -4.965354919 2.204051908e-38
-0.6494289041 15.0186882 -5.375812531 2.194868358e-38
-0.709782362 15.01574421 -5.375736237 2.194868358e-38
-0.9549022317 15.06192589 -5.397070408 2.194868358e-38
-1.016678095 15.07616615 -5.403589725 2.194868358e-38
-1.078321815 15.08664322 -5.408860207 2.194868358e-38
-1.137461305 15.062356 -5.401746273 2.194868358e-38
-0.7388507128 8.837120056 -3.171243906 2.259153205e-38
-0.8039386868 8.766143799 -3.147991896 2.259153205e-38
-0.8399119377 8.770568848 -3.15076685 2.259153205e-38
-0.8719767332 8.735220909 -3.139302254 2.259153205e-38
-0.945687592 8.760457039 -3.151003361 2.259153205e-38
-0.9835518599 8.780292511 -3.159530401 2.259153205e-38
-1.862500072 14.99034977 -5.401879787 2.194868358e-38
-1.926589727 15.01263046 -5.412655354 2.194868358e-38
-1.986847997 15.00424099 -5.412465096 2.194868358e-38
-2.039160013 14.93762112 -5.391347408 2.194868358e-38
-2.162867308 14.94614983 -5.400526524 2.194868358e-38
-2.22356987 14.94160271 -5.402070522 2.194868358e-38
-2.284347296 14.93728065 -5.403785706 2.194868358e-38
-2.342889786 14.91856289 -5.400372505 2.194868358e-38
-2.462266922 14.89626217 -5.399294376 2.194868358e-38
-2.522502661 14.88845634 -5.400094032 2.194868358e-38
-2.580370665 14.8669014 -5.395998001 2.194868358e-38
-2.641292095 14.86300087 -5.3983922 2.194868358e-38
-2.766203642 14.87088776 -5.409158707 2.194868358e-38
-2.885563135 14.84758854 -5.408950329 2.194868358e-38
-2.946745872 14.84353733 -5.411746502 2.194868358e-38
-3.001742601 14.80861092 -5.403367043 2.194868358e-38
-3.175621033 14.75047398 -5.395737648 2.194868358e-38
-3.357582092 14.7300024 -5.402667999 2.194868358e-38
-3.413263798 14.7012949 -5.397128105 2.194868358e-38
-3.483305693 14.73389149 -5.4141922 2.194868358e-38
-3.633506298 15.09784985 -5.553256989 2.194868358e-38
-3.81938076 15.06899166 -5.559183121 2.194868358e-38
-3.931619406 15.00424957 -5.546778679 2.194868358e-38
-4.009027004 15.05259418 -5.570568562 2.194868358e-38
-4.057729721 14.99286842 -5.554451942 2.194868358e-38
-4.113423347 14.95990658 -5.548321724 2.194868358e-38
-4.170559883 14.9326067 -5.544371128 2.194868358e-38
-4.235053062 14.93160629 -5.550275803 2.194868358e-38
-4.305386066 14.9503727 -5.563640594 2.194868358e-38
-4.358728409 14.90993023 -5.555065155 2.194868358e-38
-4.418056488 14.89036846 -5.554345608 2.194868358e-38
-4.542036057 14.86878204 -5.559738636 2.194868358e-38
-4.660133362 14.82767296 -5.558195114 2.194868358e-38
-4.781585217 14.79721832 -5.560962677 2.194868358e-38
-4.895789146 14.74433231 -5.555741787 2.194868358e-38
-4.95727253 14.73124123 -5.558264256 2.194868358e-38
-5.010048389 14.69240189 -5.551181316 2.194868358e-38
-5.070203781 14.67539024 -5.552416801 2.194868358e-38
-5.194171429 14.6515131 -5.558992386 2.194868358e-38
-5.257228851 14.64221287 -5.563438892 2.194868358e-38
-5.31267786 14.61170197 -5.55991888 2.194868358e-38
-5.715096951 14.43978977 -5.553514004 2.194868358e-38
-5.840034962 14.415658 -5.562110901 2.194868358e-38
-5.882363796 14.35407448 -5.547429562 2.194868358e-38
-5.991267204 14.29126453 -5.541596889 2.194868358e-38
-6.05230093 14.27562523 -5.544919014 2.194868358e-38
-6.130469799 14.29976177 -5.563822746 2.194868358e-38
-6.17606163 14.24768353 -5.553175926 2.194868358e-38
-6.245301247 14.25017738 -5.563884258 2.194868358e-38
-6.572601318 14.06425762 -5.551587105 2.194868358e-38
-6.616823673 14.01173687 -5.541308403 2.194868358e-38
-6.675947666 13.99100208 -5.543680191 2.194868358e-38
-6.740479946 13.98136806 -5.550552368 2.194868358e-38
-6.835578442 13.8919735 -5.536705494 2.194868358e-38
-6.913730621 13.90937805 -5.554675579 2.194868358e-38
-7.01478672 13.83253956 -5.546333313 2.194868358e-38
-7.080020905 13.82313538 -5.553928852 2.194868358e-38
-7.106499195 13.73843002 -5.531330585 2.194868358e-38
-7.178693771 13.74235535 -5.544483662 2.194868358e-38
-7.244664192 13.73383236 -5.552749157 2.194868358e-38
-7.309147835 13.72210312 -5.559846401 2.194868358e-38
-7.350064754 13.66623783 -5.549135208 2.194868358e-38
-7.423949242 13.67158127 -5.56337738 2.194868358e-38
-7.471426964 13.62809086 -5.557856083 2.194868358e-38
-7.535544395 13.61491394 -5.56479311 2.194868358e-38
-7.58543539 13.57596111 -5.561291695 2.194868358e-38
-7.867398739 13.43893051 -5.56882 2.194868358e-38
-7.908316135 13.38512897 -5.559652805 2.194868358e-38
-8.009906769 13.31151295 -5.55564785 2.194868358e-38
-8.065104485 13.28209686 -5.556856632 2.194868358e-38
-8.249890327 13.22426033 -5.573876858 2.194868358e-38
-8.265278816 13.13107872 -5.548564434 2.194868358e-38
-8.379465103 13.07807446 -5.554456711 2.194868358e-38
-8.640049934 12.9061594 -5.554088116 2.194868358e-38
-8.679805756 12.85347557 -5.54638052 2.194868358e-38
-8.755004883 12.85311985 -5.561373234 2.194868358e-38
-8.853872299 12.77627945 -5.558747768 2.194868358e-38
-8.877398491 12.70084953 -5.541413784 2.194868358e-38
-8.968899727 12.72254181 -5.566560745 2.194868358e-38
-9.053492546 12.62574577 -5.55588007 2.194868358e-38
-9.097924232 12.5806179 -5.552066326 2.194868358e-38
-9.139302254 12.5314436 -5.546534538 2.194868358e-38
-9.304571152 12.44011593 -5.555378437 2.194868358e-38
-9.368267059 12.42085075 -5.563545704 2.194868358e-38
-9.414869308 12.37882137 -5.561628342 2.194868358e-38
-9.600154877 12.20989227 -5.554375172 2.194868358e-38
-9.751888275 12.09967232 -5.557331562 2.194868358e-38
-9.836995125 12.00640297 -5.550642014 2.194868358e-38
-9.881672859 11.96251202 -5.548670769 2.194868358e-38
-9.93341732 11.9271841 -5.550757408 2.194868358e-38
-9.975491524 11.88025284 -5.547537327 2.194868358e-38
-10.03273392 11.85135365 -5.55283165 2.194868358e-38
-10.13262939 11.77604485 -5.555535793 2.194868358e-38
-10.16084957 11.71326733 -5.545147419 2.194868358e-38
-10.27867603 11.65839863 -5.558111191 2.194868358e-38
-10.33329582 11.6257925 -5.562328815 2.194868358e-38
-10.3630352 11.5652771 -5.553267002 2.194868358e-38
-10.41298771 11.52745628 -5.555160046 2.194868358e-38
-10.50456619 11.44252968 -5.55475378 2.194868358e-38
-10.55232716 11.40220833 -5.555727005 2.194868358e-38
-10.60941601 11.37185383 -5.561671734 2.194868358e-38
-10.73594284 11.23278522 -5.556579113 2.194868358e-38
-10.7693615 11.17744541 -5.550573826 2.194868358e-38
-10.88806534 11.12032318 -5.565497398 2.194868358e-38
-10.92710114 11.07079506 -5.562652111 2.194868358e-38
-11.00131893 10.96821213 -5.555368423 2.194868358e-38
-11.0951519 10.88528824 -5.558371544 2.194868358e-38
-11.18208027 10.79550266 -5.558256149 2.194868358e-38
-11.24793434 10.68570709 -5.548108578 2.194868358e-38
-11.32017994 10.66809368 -5.562544346 2.194868358e-38
-11.51985836 10.42716694 -5.556545258 2.194868358e-38
-11.54264545 10.36367702 -5.547393322 2.194868358e-38
-11.60470009 10.33542728 -5.557200432 2.194868358e-38
-11.66170502 10.21926403 -5.544975758 2.194868358e-38
-11.72111511 10.18832016 -5.553705692 2.194868358e-38
-11.77040005 10.14839268 -5.557681561 2.194868358e-38
-11.87152863 9.98853302 -5.548148155 2.194868358e-38
-11.91374588 9.94248867 -5.549139023 2.194868358e-38
-11.95494175 9.895647049 -5.549766541 2.194868358e-38
-12.18980789 9.604218483 -5.549633503 2.194868358e-38
-12.23006153 9.556482315 -5.550415993 2.194868358e-38
-12.27080441 9.509122849 -5.551514626 2.194868358e-38
-12.32061958 9.390161514 -5.539716244 2.194868358e-38
-12.38960552 9.364240646 -5.553759098 2.194868358e-38
-12.54223537 9.166499138 -5.555385113 2.194868358e-38
-12.57073212 9.110038757 -5.551746845 2.194868358e-38
-12.60177803 9.055480003 -5.549332142 2.194868358e-38
-12.66068363 8.944353104 -5.543427467 2.194868358e-38
-12.69771957 8.894225121 -5.543943405 2.194868358e-38
-12.81783962 8.674514771 -5.534766674 2.194868358e-38
-12.89334393 8.57529068 -5.537422657 2.194868358e-38
-12.96860313 8.475758553 -5.540298462 2.194868358e-38
-13.09824371 8.336805344 -5.552323341 2.194868358e-38
-13.10591316 8.267843246 -5.541442394 2.194868358e-38
-13.15388203 8.224366188 -5.547698021 2.194868358e-38
-13.17642117 8.164968491 -5.543316364 2.194868358e-38
-13.19250774 8.101727486 -5.536336422 2.194868358e-38
-13.23865509 8.05695343 -5.542068481 2.194868358e-38
-13.25083542 7.991549969 -5.533668995 2.194868358e-38
-13.29828167 7.947432995 -5.540099144 2.194868358e-38
-13.36824131 7.844067574 -5.542788982 2.194868358e-38
-13.40788364 7.723091602 -5.53330183 2.194868358e-38
-13.4276371 7.662752151 -5.528695107 2.194868358e-38
-13.49381065 7.628749371 -5.543254852 2.194868358e-38
-13.51613808 7.569848537 -5.539896011 2.194868358e-38
-13.57226372 7.387695789 -5.525980949 2.194868358e-38
-13.59573841 7.329774857 -5.523491859 2.194868358e-38
-13.6505394 7.288650513 -5.533811092 2.194868358e-38
-13.6520853 7.219094753 -5.522628784 2.194868358e-38
-13.70553398 7.177005768 -5.532531738 2.194868358e-38
-13.73362064 7.121516705 -5.532270432 2.194868358e-38
-13.80517197 6.948666573 -5.526934147 2.194868358e-38
-13.93229961 6.734091282 -5.53375721 2.194868358e-38
-13.93209076 6.665035725 -5.522984505 2.194868358e-38
-13.98573589 6.621751785 -5.533657074 2.194868358e-38
-14.06924248 6.386399269 -5.525348186 2.194868358e-38
-14.09685707 6.33071661 -5.526154518 2.194868358e-38
-14.13619232 6.280220509 -5.5316329 2.194868358e-38
-14.2024374 6.173417568 -5.537955284 2.194868358e-38
-14.17086506 6.092077732 -5.516046047 2.194868358e-38
-14.21668911 6.04417038 -5.524382591 2.194868358e-38
-14.30616379 5.946870804 -5.540394783 2.194868358e-38
-14.28704071 5.871671677 -5.523796558 2.194868358e-38
-14.34766579 5.8292799 -5.538133144 2.194868358e-38
-14.35770512 5.766225815 -5.533019066 2.194868358e-38
-14.39232254 5.713042736 -5.537464619 2.194868358e-38
-14.38748837 5.644283772 -5.526830673 2.194868358e-38
-14.44279861 5.599090576 -5.539383888 2.194868358e-38
-14.45518494 5.470620155 -5.527084351 2.194868358e-38
-14.47894573 5.41317606 -5.52780962 2.194868358e-38
-14.47995567 5.347299576 -5.519942284 2.194868358e-38
-14.54093361 5.303501606 -5.535015106 2.194868358e-38
-14.58367538 5.120677948 -5.527376175 2.194868358e-38
-14.64773083 5.077123165 -5.543873787 2.194868358e-38
-14.62582779 5.003759384 -5.527924538 2.194868358e-38
-14.69268799 4.764153957 -5.523521423 2.194868358e-38
-14.71944809 4.707522392 -5.526422977 2.194868358e-38
-14.75933743 4.654957294 -5.534327984 2.194868358e-38
-14.77301502 4.52902174 -5.525626659 2.194868358e-38
-14.79030228 4.469349861 -5.525329113 2.194868358e-38
-14.83497906 4.35299778 -5.528767586 2.194868358e-38
-14.868577 4.298018932 -5.534797668 2.194868358e-38
-14.86244011 4.231579781 -5.52614212 2.194868358e-38
-14.88257122 4.17271328 -5.527347088 2.194868358e-38
-14.88822651 4.1098032 -5.523266315 2.194868358e-38
-14.89809227 4.048152447 -5.520843029 2.194868358e-38
-14.93304062 3.99326849 -5.527801991 2.194868358e-38
-14.95092964 3.933703184 -5.528525829 2.194868358e-38
-14.9618721 3.872349501 -5.526769638 2.194868358e-38
-15.00528622 3.691097498 -5.525959015 2.194868358e-38
-15.06236649 3.576957941 -5.536207676 2.194868358e-38
-15.06825733 3.514431 -5.533137798 2.194868358e-38
-15.05745411 3.448147297 -5.524037361 2.194868358e-38
-15.10592747 3.331653833 -5.531816483 2.194868358e-38
-15.19682121 2.842635632 -5.528751373 2.194868358e-38
-15.23635006 2.723446846 -5.534987926 2.194868358e-38
-15.24436855 2.598566532 -5.530132294 2.194868358e-38
-15.23824501 2.534533978 -5.524170876 2.194868358e-38
-15.26937962 2.413710833 -5.528246403 2.194868358e-38
-15.26424026 2.350051403 -5.522915363 2.194868358e-38
-15.26251793 2.287015438 -5.518923759 2.194868358e-38
-15.26875019 2.22522068 -5.517899513 2.194868358e-38
-15.26596546 2.162189007 -5.513701439 2.194868358e-38
-15.32852936 2.045473337 -5.530183792 2.194868358e-38
-15.32641983 1.982521296 -5.526503563 2.194868358e-38
-15.34041691 1.609226465 -5.515945911 2.194868358e-38
-15.38313103 1.55120635 -5.529018402 2.194868358e-38
-15.3711071 1.425257444 -5.520400047 2.194868358e-38
-15.40909863 1.303917885 -5.530099392 2.194868358e-38
-15.42088032 1.242502451 -5.532489777 2.194868358e-38
-15.40734577 1.179085135 -5.525889874 2.194868358e-38
-15.39156532 1.11566627 -5.518578053 2.194868358e-38
-15.44360256 1.057044983 -5.535665512 2.194868358e-38
-15.40186691 0.8056212068 -5.515347481 2.194868358e-38
-15.41002941 0.7439456582 -5.517157078 2.194868358e-38
-15.45450306 0.6215928793 -5.53111124 2.194868358e-38
-15.42110348 0.4961116612 -5.517548561 2.194868358e-38
-15.46365738 0.4352506697 -5.532108307 2.194868358e-38
-15.44105625 0.3725096583 -5.523436069 2.194868358e-38
-15.45019054 0.1242159754 -5.525281429 2.194868358e-38
-14.42013645 4.882784197e-06 -5.52605629 2.204051908e-38
-14.43148136 -0.1160282195 -5.530582428 2.204051908e-38
-14.42460537 -0.2319660485 -5.528482437 2.204051908e-38
-14.40525436 -0.4634221792 -5.523211002 2.204051908e-38
-14.41591072 -0.5217846036 -5.528055668 2.204051908e-38
-14.39251137 -0.636849761 -5.520867825 2.204051908e-38
-14.39955521 -0.7531981468 -5.525714874 2.204051908e-38
-14.39522457 -0.8690777421 -5.526551723 2.204051908e-38
-14.34666443 -1.039932609 -5.512327194 2.204051908e-38
-14.36713409 -1.0994941 -5.521845818 2.204051908e-38
-14.38255882 -1.158844233 -5.529519081 2.204051908e-38
-14.38615513 -1.217355371 -5.532736301 2.204051908e-38
-14.33392811 -1.387230158 -5.518682957 2.204051908e-38
-14.30201435 -1.558442712 -5.513232231 2.204051908e-38
-14.31748581 -1.676716447 -5.524215698 2.204051908e-38
-14.30831718 -1.733984232 -5.523320675 2.204051908e-38
-14.26931095 -2.021024942 -5.522832394 2.204051908e-38
-14.25201416 -2.194207907 -5.525977135 2.204051908e-38
-14.26284599 -2.313417673 -5.537209988 2.204051908e-38
-14.24286079 -2.368975639 -5.533106804 2.204051908e-38
-14.19216156 -2.41921401 -5.517142296 2.204051908e-38
-14.23690224 -2.485774279 -5.538375378 2.204051908e-38
-14.14636421 -2.646148443 -5.51516819 2.204051908e-38
-14.17139721 -2.709843636 -5.529131889 2.204051908e-38
-14.10719109 -2.756392241 -5.508360863 2.204051908e-38
-14.13533878 -2.939298153 -5.532791615 2.204051908e-38
-14.05764675 -3.159765244 -5.521552563 2.204051908e-38
-14.05390739 -3.337462425 -5.535491943 2.204051908e-38
-14.00233841 -3.444381475 -5.525909901 2.204051908e-38
-13.97916889 -3.498333454 -5.522269249 2.204051908e-38
-14.00184536 -3.563884735 -5.536846161 2.204051908e-38
-13.96218204 -3.613613605 -5.526859283 2.204051908e-38
-13.94410133 -3.6688025 -5.525496006 2.204051908e-38
-13.94705772 -3.729603767 -5.53256321 2.204051908e-38
-13.88744354 -3.773540258 -5.514887333 2.204051908e-38
-13.93023586 -3.845366716 -5.537976265 2.204051908e-38
-13.85609245 -3.945057154 -5.520931244 2.204051908e-38
-13.86055946 -4.00662899 -5.529084682 2.204051908e-38
-13.82842922 -4.057649612 -5.522727966 2.204051908e-38
-13.82597923 -4.117380619 -5.528315544 2.204051908e-38
-13.79703808 -4.16924715 -5.523384571 2.204051908e-38
-13.78167057 -4.225093842 -5.524003029 2.204051908e-38
-13.72867393 -4.329902172 -5.516536713 2.204051908e-38
-13.74990749 -4.397445202 -5.53212738 2.204051908e-38
-13.71261215 -4.446362972 -5.524269104 2.204051908e-38
-13.70488453 -4.504820824 -5.528408527 2.204051908e-38
-13.68489075 -4.55928278 -5.527690411 2.204051908e-38
-13.65736389 -4.611196518 -5.52401495 2.204051908e-38
-13.57984734 -4.829624653 -5.523361206 2.204051908e-38
-13.55936813 -4.945498466 -5.531024933 2.204051908e-38
-13.52019787 -4.992877483 -5.523190498 2.204051908e-38
-13.49213982 -5.044237614 -5.519966125 2.204051908e-38
-13.49037075 -5.105489731 -5.527594566 2.204051908e-38
-13.4280901 -5.205724716 -5.519047737 2.204051908e-38
-13.40772724 -5.259933472 -5.519327641 2.204051908e-38
-13.40543747 -5.321303368 -5.527141094 2.204051908e-38
-13.2809906 -5.520715714 -5.511722088 2.204051908e-38
-13.28548622 -5.585338593 -5.522866249 2.204051908e-38
-13.20346832 -5.676193714 -5.507561207 2.204051908e-38
-13.27423477 -5.769943714 -5.546710968 2.204051908e-38
-13.13550186 -5.898988724 -5.518067837 2.204051908e-38
-13.13533306 -5.962480545 -5.528017998 2.204051908e-38
-13.12225723 -6.084248066 -5.542924404 2.204051908e-38
-13.05899239 -6.118815899 -5.526544094 2.204051908e-38
-13.01880455 -6.163935184 -5.519979954 2.204051908e-38
-12.98923397 -6.213984013 -5.517991066 2.204051908e-38
-12.97373009 -6.270776749 -5.522068024 2.204051908e-38
-12.96394634 -6.330469131 -5.528691292 2.204051908e-38
-12.95772171 -6.392066479 -5.536950588 2.204051908e-38
-12.91447067 -6.435395718 -5.529475689 2.204051908e-38
-12.88179684 -6.483898163 -5.526606083 2.204051908e-38
-12.85523701 -6.600594044 -5.537799835 2.204051908e-38
-12.82069016 -6.648122311 -5.534385681 2.204051908e-38
-12.75730896 -6.680463314 -5.518571377 2.204051908e-38
-12.73543835 -6.734375 -5.520777702 2.204051908e-38
-12.72430325 -6.794080734 -5.527743816 2.204051908e-38
-12.70470524 -6.849410057 -5.531151772 2.204051908e-38
-12.69167995 -6.90836525 -5.537524223 2.204051908e-38
-12.62745285 -6.939352512 -5.521627903 2.204051908e-38
-12.5990324 -7.056219578 -5.533831596 2.204051908e-38
-12.54829121 -7.094206333 -5.524022579 2.204051908e-38
-12.4631424 -7.178903103 -5.511769772 2.204051908e-38
-12.4072237 -7.347374916 -5.525827885 2.204051908e-38
-12.34683037 -7.378815174 -5.512097359 2.204051908e-38
-12.35502625 -7.451284885 -5.529085159 2.204051908e-38
-12.29910088 -7.485143185 -5.517477036 2.204051908e-38
-12.19329262 -7.692122936 -5.524790764 2.204051908e-38
-12.19024563 -7.758879662 -5.537497997 2.204051908e-38
-12.10353851 -7.84112072 -5.526569843 2.204051908e-38
-12.02570724 -7.998229027 -5.534673214 2.204051908e-38
-12.02379704 -8.066862106 -5.548675537 2.204051908e-38
-11.88775826 -8.255830765 -5.546443939 2.204051908e-38
-11.80200195 -8.266807556 -5.521895885 2.204051908e-38
-11.76353073 -8.310546875 -5.519483089 2.204051908e-38
-11.6911974 -8.47264576 -5.533086777 2.204051908e-38
-11.62618065 -8.497005463 -5.518436432 2.204051908e-38
-11.57164288 -8.600723267 -5.525193214 2.204051908e-38
-11.51081944 -8.627560616 -5.512665749 2.204051908e-38
-11.48742199 -8.682372093 -5.518131733 2.204051908e-38
-11.42907333 -8.783514977 -5.523844719 2.204051908e-38
-11.40272331 -8.836414337 -5.528235435 2.204051908e-38
-11.3871212 -8.897837639 -5.537970543 2.204051908e-38
-11.31510067 -8.915031433 -5.520325184 2.204051908e-38
-11.30074501 -8.977578163 -5.530881405 2.204051908e-38
-11.24277687 -9.00549221 -5.520188332 2.204051908e-38
-11.22192669 -9.063082695 -5.527792454 2.204051908e-38
-11.16004276 -9.162324905 -5.533417225 2.204051908e-38
-11.13680458 -9.218442917 -5.540226936 2.204051908e-38
-10.94820309 -9.439491272 -5.539684772 2.204051908e-38
-10.87004757 -9.52553463 -5.538710594 2.204051908e-38
-10.82215118 -9.560756683 -5.533846855 2.204051908e-38
-10.77179337 -9.593626022 -5.527769089 2.204051908e-38
-10.65914345 -9.726337433 -5.529758453 2.204051908e-38
-10.61336613 -9.763037682 -5.526323318 2.204051908e-38
-10.59165764 -9.821973801 -5.535538673 2.204051908e-38
-10.52397251 -9.838181496 -5.520783424 2.204051908e-38
-10.37826061 -10.10040283 -5.549737453 2.204051908e-38
-10.25028038 -10.13759136 -5.524710178 2.204051908e-38
-10.17298222 -10.22422886 -5.527173042 2.204051908e-38
-10.01928425 -10.39895916 -5.533812046 2.204051908e-38
-9.94383049 -10.48810959 -5.538528919 2.204051908e-38
-9.882386208 -10.50759888 -5.527793407 2.204051908e-38
-9.848454475 -10.55621338 -5.532500267 2.204051908e-38
-9.804127693 -10.59375477 -5.531476498 2.204051908e-38
-9.749641418 -10.62020969 -5.524778366 2.204051908e-38
-9.7205019 -10.67428875 -5.532539845 2.204051908e-38
-9.67993927 -10.71595669 -5.53392601 2.204051908e-38
-9.616370201 -10.73213196 -5.522267818 2.204051908e-38
-9.588527679 -10.7878685 -5.531067848 2.204051908e-38
-9.394761086 -11.00786018 -5.545904636 2.204051908e-38
-9.276618958 -11.04788113 -5.528314114 2.204051908e-38
-9.26262188 -11.12163544 -5.546541691 2.204051908e-38
-9.15812397 -11.17781448 -5.537660122 2.204051908e-38
-8.974481583 -11.32019424 -5.53598547 2.204051908e-38
-8.817067146 -11.4966135 -5.552205086 2.204051908e-38
-8.718490601 -11.55937099 -5.548475266 2.204051908e-38
-8.581734657 -11.66807461 -5.550572395 2.204051908e-38
-8.535838127 -11.70413494 -5.551359653 2.204051908e-38
-8.435648918 -11.76413059 -5.547467232 2.204051908e-38
-8.406521797 -11.82360172 -5.559531212 2.204051908e-38
-8.206557274 -11.94463539 -5.553670883 2.204051908e-38
-8.147345543 -11.96102715 -5.5460186 2.204051908e-38
-8.01352787 -12.07491875 -5.553610325 2.204051908e-38
-7.977344036 -12.12590694 -5.56226635 2.204051908e-38
-7.909613609 -12.12874794 -5.548937798 2.204051908e-38
-7.865877628 -12.16854572 -5.552633286 2.204051908e-38
-7.819732189 -12.20448589 -5.554647446 2.204051908e-38
-7.70763731 -12.24516773 -5.544784069 2.204051908e-38
-7.625091553 -12.33293819 -5.556586266 2.204051908e-38
-7.522544861 -12.38858223 -5.554221153 2.204051908e-38
-7.469202042 -12.41291618 -5.551628113 2.204051908e-38
-7.270437241 -12.53453064 -5.553009987 2.204051908e-38
-6.970893383 -12.71501732 -5.556847572 2.204051908e-38
-6.854874134 -12.74548149 -5.5458951 2.204051908e-38
-6.803459167 -12.77299404 -5.545923233 2.204051908e-38
-6.714232445 -12.8532362 -5.557143211 2.204051908e-38
-6.660554886 -12.87632465 -5.555510044 2.204051908e-38
-6.610877037 -12.90718174 -5.557308197 2.204051908e-38
-6.554888248 -12.92567348 -5.553878784 2.204051908e-38
-6.408524036 -13.02408981 -5.562552452 2.204051908e-38
-6.351099491 -13.03942394 -5.558156013 2.204051908e-38
-6.233884811 -13.06456757 -5.547327995 2.204051908e-38
-6.200008869 -13.12911034 -5.56410408 2.204051908e-38
-6.089529514 -13.16819191 -5.559737682 2.204051908e-38
-6.02456522 -13.1664238 -5.548722744 2.204051908e-38
-5.978159428 -13.20534706 -5.554951668 2.204051908e-38
-5.874187469 -13.25814438 -5.557116508 2.204051908e-38
-5.761079311 -13.29038525 -5.55103302 2.204051908e-38
-5.711933613 -13.32349873 -5.555231571 2.204051908e-38
-5.661688328 -13.3542881 -5.558531761 2.204051908e-38
-5.612071991 -13.3867569 -5.562610626 2.204051908e-38
-5.498771667 -13.4180336 -5.557056427 2.204051908e-38
-5.443294525 -13.43633366 -5.555533886 2.204051908e-38
-5.383786678 -13.44449043 -5.549911022 2.204051908e-38
-5.337772369 -13.48644733 -5.558327198 2.204051908e-38
-5.281369686 -13.5023098 -5.556069851 2.204051908e-38
-5.236124992 -13.54690361 -5.565713406 2.204051908e-38
-5.117438316 -13.56314564 -5.555298805 2.204051908e-38
-5.063329697 -13.58470154 -5.555749893 2.204051908e-38
-5.019182682 -13.63369274 -5.56748867 2.204051908e-38
-4.938256741 -13.58197594 -5.538217545 2.204051908e-38
-4.892574787 -13.62658501 -5.548342228 2.204051908e-38
-4.795317173 -13.70108128 -5.562796593 2.204051908e-38
-4.731009007 -13.69361973 -5.552004337 2.204051908e-38
-4.623958111 -13.7407465 -5.555853367 2.204051908e-38
-4.561235905 -13.73678875 -5.546793461 2.204051908e-38
-4.507035255 -13.75822735 -5.548092365 2.204051908e-38
-4.341898918 -13.81544209 -5.549645901 2.204051908e-38
-4.287008286 -13.83465385 -5.550394535 2.204051908e-38
-4.235063553 -13.86387825 -5.555245876 2.204051908e-38
-4.167653561 -13.84211922 -5.539766312 2.204051908e-38
-4.115749836 -13.87151241 -5.544863701 2.204051908e-38
-3.902600288 -13.97318363 -5.559697628 2.204051908e-38
-3.78551507 -13.98704815 -5.552925587 2.204051908e-38
-3.718296289 -13.96102047 -5.536612988 2.204051908e-38
-3.448719263 -14.08096218 -5.555566311 2.204051908e-38
-3.392266512 -14.09546661 -5.555860043 2.204051908e-38
-3.249018908 -13.74283791 -5.411680222 2.204051908e-38
-3.188806534 -13.73451233 -5.403311729 2.204051908e-38
-3.133072376 -13.7450676 -5.402462959 2.204051908e-38
-3.083961248 -13.7850914 -5.413277626 2.204051908e-38
-3.023752213 -13.77572823 -5.404782772 2.204051908e-38
-2.914727688 -13.80824566 -5.408171177 2.204051908e-38
-2.803027391 -13.82833004 -5.407035351 2.204051908e-38
-2.742217302 -13.81322289 -5.396776199 2.204051908e-38
-2.575363398 -13.84493446 -5.396639347 2.204051908e-38
-2.519711018 -13.85531616 -5.396690369 2.204051908e-38
-2.465919256 -13.87620926 -5.400924683 2.204051908e-38
-2.350566149 -13.87368393 -5.392408371 2.204051908e-38
-2.293996334 -13.87813663 -5.390514851 2.204051908e-38
-2.078159094 -13.96430969 -5.410308838 2.204051908e-38
-2.016849756 -13.93704224 -5.39655447 2.204051908e-38
-1.903793216 -13.94595242 -5.393904209 2.204051908e-38
-1.794981718 -13.987113 -5.404068947 2.204051908e-38
-1.737764478 -13.9863224 -5.401019573 2.204051908e-38
-1.626064897 -14.00674629 -5.403685093 2.204051908e-38
-1.570333123 -14.01850796 -5.405743599 2.204051908e-38
-1.516264796 -14.04603672 -5.413965225 2.204051908e-38
-1.457356811 -14.02847004 -5.404891968 2.204051908e-38
-1.404681563 -14.07169437 -5.419322491 2.204051908e-38
-1.343091726 -14.02455997 -5.399050236 2.204051908e-38
-1.287165761 -14.03538418 -5.401176453 2.204051908e-38
-1.119506478 -14.07113266 -5.409348488 2.204051908e-38
-0.9872546196 -13.07330036 -5.024177074 2.213235457e-38
-0.9305588603 -13.01915455 -5.001901627 2.213235457e-38
-0.8776038885 -13.01378536 -4.998443127 2.213235457e-38
-0.8232268691 -12.98481369 -4.986004353 2.213235457e-38
-0.7747403979 -13.05062485 -5.010040283 2.213235457e-38
-0.7245982885 -13.09585571 -5.026243687 2.213235457e-38
-0.7219908237 -14.07443619 -5.400666237 2.204051908e-38
-0.6643375754 -14.05403423 -5.391769886 2.204051908e-38
-0.608271122 -14.06668377 -5.39564085 2.204051908e-38
-0.5530537367 -14.10320759 -5.408752441 2.204051908e-38
-0.4401765764 -14.12463093 -5.415435314 2.204051908e-38
-0.3829620481 -14.10901356 -5.408817768 2.204051908e-38
-0.3263037801 -14.11334991 -5.40993309 2.204051908e-38
-0.2127352655 -14.11122513 -5.408286572 2.204051908e-38
-0.1556091905 -14.07567978 -5.394377708 2.204051908e-38
-0.04252086952 -14.10278416 -5.404461861 2.204051908e-38
0.01416089665 -14.09988689 -5.40333271 2.204051908e-38
0.07089973986 -14.10895538 -5.406873703 2.204051908e-38
0.1839948893 -14.08231544 -5.397057056 2.204051908e-38
0.2969308197 -14.06650162 -5.391739368 2.204051908e-38
0.354370743 -14.10037136 -5.405220032 2.204051908e-38
