# .PCD v0.7 - Point Cloud Data file format
VERSION 0.7
FIELDS x y z rgb
SIZE 4 4 4 4
TYPE F F F F
COUNT 1 1 1 1
WIDTH 890
HEIGHT 1
VIEWPOINT 0 0 0 1 0 0 0
POINTS 890
DATA ascii
35.14411545 -22.86812019 -2.126410484 1.983646717e-38
35.73669052 -22.84687424 -2.151080608 1.974463167e-38
29.3592205 -18.43883514 -1.758224607 2.038748015e-38
29.30653 -18.24187279 -1.75066328 2.038748015e-38
29.36009407 -18.11187744 -1.74950099 2.038748015e-38
29.41396141 -17.82021904 -1.744115114 2.038748015e-38
29.67661285 -17.8166523 -1.755428076 2.038748015e-38
38.39651489 -22.84227371 -2.265776634 1.956096068e-38
38.75722885 -22.84641457 -2.281624317 1.956096068e-38
40.22746277 -22.84956932 -2.346242189 1.946912519e-38
40.59171677 -22.84113503 -2.362112761 1.946912519e-38
40.99485016 -22.85149384 -2.380207539 1.937728969e-38
41.39716339 -22.85812378 -2.398211241 1.937728969e-38
41.7762413 -22.84876251 -2.414830446 1.937728969e-38
42.5923996 -22.852211 -2.451308489 1.928545419e-38
43.41233444 -22.84456444 -2.487847805 1.928545419e-38
36.13333893 -18.46121979 -2.057796955 1.992830267e-38
36.09702301 -17.89702415 -2.043287754 1.992830267e-38
36.11031342 -17.72312355 -2.039990664 1.992830267e-38
36.38035583 -17.67455101 -2.051215887 1.992830267e-38
47.96662903 -22.82865334 -2.694042921 1.891811221e-38
48.43177414 -22.81169891 -2.714995861 1.891811221e-38
48.94742584 -22.81459427 -2.738738537 1.882627671e-38
50.53408432 -22.81642914 -2.811915636 1.873444122e-38
51.11223602 -22.83057785 -2.838956594 1.873444122e-38
52.22003174 -22.8235569 -2.890200853 1.864260572e-38
52.75191498 -22.80389404 -2.914541006 1.864260572e-38
43.8469162 -18.53743553 -2.414227962 1.937728969e-38
43.57823944 -18.21767998 -2.39538312 1.937728969e-38
43.57029724 -18.00895691 -2.390948772 1.937728969e-38
43.93841934 -17.74885941 -2.403241158 1.937728969e-38
57.10578156 -22.80123329 -3.118398905 1.827526374e-38
49.50693893 -18.16947174 -2.674458981 1.891811221e-38
49.55747223 -17.96229362 -2.673266172 1.891811221e-38
49.56771469 -17.74090958 -2.669948101 1.90099477e-38
50.0043869 -17.67074776 -2.689624071 1.891811221e-38
53.76071167 -17.79107857 -2.871758461 1.864260572e-38
56.34839249 -18.39644432 -3.006109715 1.845893473e-38
56.01187897 -18.03772926 -2.984263659 1.845893473e-38
56.28631973 -17.87668419 -2.995033026 1.845893473e-38
56.3213768 -17.63889885 -2.993100405 1.845893473e-38
56.86092377 -17.5572052 -3.017998695 1.845893473e-38
63.23228455 -18.69229889 -3.343961 1.799975725e-38
63.39192963 -17.63622284 -3.336974144 1.799975725e-38
63.65385056 -17.43372536 -3.347044706 1.799975725e-38
70.60430908 -18.42493439 -3.700560808 1.744874427e-38
70.86664581 -17.58338737 -3.702926874 1.744874427e-38
74.04248047 -15.8627758 -3.840277195 1.726507328e-38
74.74199677 5.568763733 -3.800914288 1.735690877e-38
72.91907501 6.909155846 -3.714600801 1.744874427e-38
69.93396759 6.910097599 -3.563924551 1.763241526e-38
67.1754303 6.910316944 -3.424727201 1.790792175e-38
58.33280945 7.188175678 -2.980682373 1.855077022e-38
73.17714691 9.31614399 -3.741082668 1.744874427e-38
70.37922668 9.823852539 -3.603833437 1.763241526e-38
68.51008606 9.843884468 -3.510121584 1.772425076e-38
68.50801849 10.40642738 -3.514179945 1.772425076e-38
68.48809814 10.68526459 -3.515356541 1.772425076e-38
73.15884399 11.71540928 -3.757470846 1.744874427e-38
58.18880844 9.798613548 -2.992441893 1.845893473e-38
56.93090057 10.0581398 -2.931886196 1.855077022e-38
56.9197197 10.29227829 -2.933419228 1.855077022e-38
73.14076233 13.83357811 -3.77504611 1.735690877e-38
73.13220215 14.136693 -3.777507067 1.735690877e-38
73.15019226 14.44542408 -3.781404495 1.735690877e-38
73.14572906 15.05657196 -3.787309885 1.735690877e-38
45.55899048 9.7604599 -2.362891912 1.946912519e-38
44.95701981 9.820692062 -2.333725452 1.946912519e-38
44.89667892 9.996774673 -2.332644463 1.946912519e-38
44.93098068 10.38423252 -2.338703871 1.946912519e-38
69.17938232 17.16468811 -3.614789963 1.763241526e-38
68.39115906 17.55402946 -3.580904961 1.763241526e-38
73.16938782 19.40881157 -3.839062691 1.726507328e-38
73.09043121 19.70267677 -3.839044809 1.726507328e-38
35.00980759 9.740046501 -1.842933178 2.020380915e-38
33.41998672 9.733462334 -1.765295744 2.038748015e-38
33.23192215 9.969208717 -1.759516001 2.038748015e-38
33.2280426 10.11381531 -1.761462688 2.038748015e-38
33.18359756 10.392519 -1.763495326 2.038748015e-38
33.19361115 10.54236794 -1.766251564 2.038748015e-38
33.18243408 10.68584156 -1.767895103 2.038748015e-38
73.08719635 23.86121368 -3.899101257 1.717323778e-38
73.10754395 24.19351959 -3.905344009 1.717323778e-38
73.1078186 24.84750938 -3.915904522 1.717323778e-38
73.09162903 25.17019844 -3.920425177 1.717323778e-38
73.08887482 26.15940094 -3.936913013 1.717323778e-38
73.08705139 26.49063683 -3.942519903 1.717323778e-38
46.60426331 17.10414124 -2.517649174 1.91936187e-38
46.01388931 17.09767151 -2.489347458 1.91936187e-38
45.45503235 17.09828568 -2.462873697 1.928545419e-38
44.91654968 17.10214424 -2.43740797 1.928545419e-38
44.80334091 17.26558495 -2.435043812 1.928545419e-38
44.77351761 17.46112442 -2.437164068 1.928545419e-38
24.30532074 9.704621315 -1.327245355 2.112216412e-38
24.0643158 9.72072506 -1.31621623 2.112216412e-38
23.79264832 9.722434044 -1.303531647 2.112216412e-38
23.5320034 9.726494789 -1.291363835 2.112216412e-38
23.23757553 9.714354515 -1.27733922 2.121399961e-38
22.93390465 9.695892334 -1.262785792 2.121399961e-38
22.66581726 9.798098564 -1.252338648 2.121399961e-38
22.65390587 10.11890411 -1.258281112 2.121399961e-38
22.67658424 10.23859024 -1.261841297 2.121399961e-38
22.65991402 10.45119286 -1.265565157 2.121399961e-38
22.6520462 10.66924953 -1.269837022 2.121399961e-38
33.44207764 17.08618164 -1.904479265 2.011197366e-38
33.06645203 17.06223106 -1.887026668 2.020380915e-38
33.07424927 17.2349472 -1.891409874 2.020380915e-38
33.10006714 17.41795731 -1.896962404 2.020380915e-38
33.10298157 17.76079559 -1.905128002 2.011197366e-38
46.81724548 25.85084534 -2.712205887 1.891811221e-38
46.37870789 25.85254288 -2.692841053 1.891811221e-38
45.95138931 25.85701752 -2.67407918 1.891811221e-38
45.52030563 25.85589027 -2.654966593 1.90099477e-38
44.97745514 26.02806282 -2.635320187 1.90099477e-38
44.9426384 26.73654747 -2.652031422 1.90099477e-38
58.16593552 35.23935699 -3.449027777 1.781608625e-38
57.62995911 35.23210526 -3.425707817 1.790792175e-38
56.81474686 35.36436462 -3.393902302 1.790792175e-38
24.24085999 17.05241776 -1.503019571 2.075482213e-38
24.03704643 17.05388451 -1.494636536 2.084665763e-38
23.81206894 17.03859138 -1.484906912 2.084665763e-38
23.61444283 17.04113197 -1.476811886 2.084665763e-38
23.4300499 17.0517292 -1.469569564 2.084665763e-38
23.24778366 17.0624485 -1.462422252 2.084665763e-38
23.01429558 17.03384209 -1.45204103 2.084665763e-38
22.82255363 17.03437042 -1.444247007 2.084665763e-38
22.56583595 17.12696075 -1.436700344 2.093849312e-38
22.56127167 17.55630493 -1.449798107 2.084665763e-38
22.56287766 17.70364189 -1.454452395 2.084665763e-38
22.54028893 17.83276176 -1.457564116 2.084665763e-38
46.75040054 44.95300293 -3.289151907 1.809159274e-38
46.34560013 44.92370987 -3.273289442 1.809159274e-38
45.99197388 44.94094467 -3.261110783 1.809159274e-38
45.21894455 44.90193176 -3.231797218 1.818342824e-38
44.86423874 44.90934753 -3.219334602 1.818342824e-38
34.31538391 35.18859863 -2.49266386 1.91936187e-38
33.76086807 35.18144226 -2.472799301 1.928545419e-38
23.99615097 25.82448387 -1.78781271 2.029564465e-38
23.80351067 25.82456779 -1.781166077 2.038748015e-38
23.58870125 25.79886055 -1.772878528 2.038748015e-38
23.22270584 25.81225777 -1.760908127 2.038748015e-38
23.041399 25.81872368 -1.754972458 2.038748015e-38
22.85607338 25.81926537 -1.748751521 2.038748015e-38
22.68945313 26.2624855 -1.760124326 2.038748015e-38
22.69758034 26.48639297 -1.768943667 2.038748015e-38
22.69413185 26.69884682 -1.776984453 2.038748015e-38
34.57373047 44.89372635 -2.873756409 1.864260572e-38
34.27347183 44.87587357 -2.863728523 1.864260572e-38
34.02513123 44.9238739 -2.858019829 1.873444122e-38
33.72044754 44.89550781 -2.847638607 1.873444122e-38
33.15127563 44.88467407 -2.829887152 1.873444122e-38
33.00613785 45.06610107 -2.833000183 1.873444122e-38
33.00002289 45.43985367 -2.848099947 1.873444122e-38
24.46100044 35.14650726 -2.171622038 1.974463167e-38
24.29193115 35.20455933 -2.169147968 1.974463167e-38
24.06016159 35.17026901 -2.161057949 1.974463167e-38
23.83926201 35.14977646 -2.153922319 1.974463167e-38
23.6227169 35.13370895 -2.147081852 1.974463167e-38
23.445467 35.17461395 -2.143796682 1.974463167e-38
23.24733925 35.1830101 -2.138600111 1.974463167e-38
23.02980042 35.16030121 -2.131572247 1.983646717e-38
22.62955856 35.16279221 -2.120633841 1.983646717e-38
22.55149078 35.35298157 -2.126451015 1.983646717e-38
22.52829361 35.63174438 -2.137865067 1.974463167e-38
22.52402496 35.94404221 -2.151099205 1.974463167e-38
39.36675262 63.38669586 -3.784118891 1.735690877e-38
39.35609055 63.94162369 -3.807771921 1.735690877e-38
40.55898285 67.71193695 -4.002874374 1.708140229e-38
40.14571762 68.26103973 -4.016121864 1.708140229e-38
34.91374207 61.61109543 -3.591378927 1.763241526e-38
34.86194611 62.10033035 -3.61169982 1.763241526e-38
24.01833153 44.8741188 -2.581227064 1.91017832e-38
23.77379036 44.84965897 -2.574311495 1.91017832e-38
23.12055969 44.91817856 -2.562093735 1.91017832e-38
22.87455177 44.88272858 -2.554775 1.91017832e-38
22.47105789 44.98126984 -2.549993753 1.91017832e-38
22.47605705 45.44739532 -2.571178675 1.91017832e-38
24.53289032 50.11227417 -2.829623938 1.873444122e-38
23.81076622 50.16015625 -2.815895557 1.873444122e-38
23.56138229 50.15420914 -2.810223579 1.873444122e-38
23.3241291 50.1723175 -2.805962324 1.873444122e-38
23.08654022 50.18800735 -2.80162549 1.873444122e-38
22.1438961 50.25169754 -2.784941673 1.882627671e-38
21.87718391 50.7482338 -2.802621126 1.873444122e-38
21.87053299 51.29910278 -2.828166962 1.873444122e-38
30.79909515 73.05446625 -4.020698547 1.708140229e-38
30.46412277 73.0791626 -4.015285015 1.708140229e-38
30.1153183 73.06809235 -4.007994175 1.708140229e-38
24.44327736 60.68649673 -3.317940474 1.799975725e-38
24.16859436 60.70759201 -3.313755274 1.799975725e-38
23.87988472 60.69126129 -3.307596207 1.799975725e-38
23.61450577 60.73217392 -3.30462575 1.799975725e-38
22.49739265 60.73272705 -3.284546137 1.809159274e-38
22.30924034 64.1546936 -3.444664001 1.781608625e-38
22.31526566 67.65982819 -3.613132 1.763241526e-38
22.29879951 68.53486633 -3.655041218 1.754057977e-38
22.29099464 69.45867157 -3.699500561 1.744874427e-38
22.28900719 70.42422485 -3.746124983 1.744874427e-38
22.28833008 71.41873932 -3.794228554 1.735690877e-38
22.28465271 72.4295578 -3.843140364 1.726507328e-38
-0.1872669011 5.321770191 -0.2700524628 2.295887404e-38
-0.2265627533 5.239459991 -0.2659592032 2.295887404e-38
-0.247407794 5.234014034 -0.2657312155 2.295887404e-38
-0.267683059 5.21807766 -0.2649746239 2.295887404e-38
-0.3479745388 5.160007954 -0.2622756064 2.295887404e-38
-0.366822958 5.132138729 -0.2609331906 2.295887404e-38
-0.3881613612 5.140011311 -0.2614097893 2.295887404e-38
-0.4084590375 5.133861065 -0.2611784935 2.295887404e-38
-0.5420536399 5.217799664 -0.2660371065 2.295887404e-38
-0.5652273893 5.23598814 -0.2670773864 2.295887404e-38
-7.11570406 57.27062225 -2.926770926 1.855077022e-38
-7.345087528 57.23532104 -2.926452637 1.855077022e-38
-7.579042912 57.23519135 -2.927978992 1.855077022e-38
-8.343132019 61.1164856 -3.128226757 1.827526374e-38
-8.339678764 59.31089783 -3.037497759 1.845893473e-38
-8.37022686 57.84099579 -2.963926315 1.855077022e-38
-9.223146439 57.22726822 -2.939691305 1.855077022e-38
-9.685790062 57.16793442 -2.940548182 1.855077022e-38
-9.927980423 57.20043564 -2.944249153 1.855077022e-38
-10.16248512 57.18603516 -2.945587158 1.855077022e-38
-10.39468765 57.15790558 -2.946267128 1.855077022e-38
-10.63783741 57.18811417 -2.950004339 1.855077022e-38
-10.86820316 57.14771271 -2.950149775 1.855077022e-38
-11.72277546 57.83237457 -2.992525816 1.845893473e-38
-11.82297134 57.1457901 -2.959483147 1.855077022e-38
-12.05901909 57.12833405 -2.961065769 1.855077022e-38
-12.29406929 57.10477066 -2.962382078 1.855077022e-38
-12.5409584 57.13446808 -2.966514111 1.855077022e-38
-11.63291931 50.10425949 -2.608589172 1.91017832e-38
-11.6924324 49.45723343 -2.577329397 1.91017832e-38
-11.90420341 49.46403122 -2.580156326 1.91017832e-38
-12.10952473 49.44259644 -2.581557274 1.91017832e-38
-12.32330322 49.45428467 -2.584732771 1.91017832e-38
-12.52647781 49.42197418 -2.585654736 1.91017832e-38
-12.73773956 49.42045593 -2.588233232 1.91017832e-38
-13.15593815 49.39628601 -2.592423677 1.91017832e-38
-13.56194782 49.32280731 -2.594205856 1.91017832e-38
-13.99444103 49.34041977 -2.600966692 1.91017832e-38
-14.85307884 50.80799484 -2.684542894 1.891811221e-38
-14.85384369 50.06256104 -2.648283958 1.90099477e-38
-14.85537052 49.33947754 -2.613173485 1.90099477e-38
-15.2545557 49.22805023 -2.613682508 1.90099477e-38
-16.52909851 49.11847305 -2.628269434 1.90099477e-38
-16.75220108 49.12731171 -2.632324457 1.90099477e-38
-17.17982101 49.08579636 -2.637415648 1.90099477e-38
-18.17376137 50.61677933 -2.727440119 1.891811221e-38
-18.17943764 49.38072586 -2.668626785 1.90099477e-38
-12.99754333 34.87209702 -1.887441278 2.020380915e-38
-18.7052002 48.97879028 -2.658901453 1.90099477e-38
-19.14145088 48.9368515 -2.664894104 1.90099477e-38
-20.2734127 48.90961075 -2.685061693 1.891811221e-38
-20.72994614 48.89595413 -2.693374395 1.891811221e-38
-21.82874489 50.35720062 -2.783442974 1.882627671e-38
-21.82212067 49.79247665 -2.757055283 1.882627671e-38
-21.89569473 48.88744354 -2.716602087 1.891811221e-38
-22.1419754 48.90929031 -2.72274065 1.891811221e-38
-22.36996269 48.88880539 -2.726584435 1.891811221e-38
-22.61510658 48.90407181 -2.73248291 1.891811221e-38
-22.85817337 48.91264343 -2.738073826 1.882627671e-38
-23.3271122 48.88742447 -2.747073174 1.882627671e-38
-23.57929993 48.90912247 -2.753596067 1.882627671e-38
-23.81946182 48.90364838 -2.758657694 1.882627671e-38
-24.06904793 48.9156456 -2.764769077 1.882627671e-38
-24.3033371 48.89463806 -2.769081831 1.882627671e-38
-25.04608917 49.38867188 -2.808375597 1.873444122e-38
-25.05727005 48.92218018 -2.787555218 1.882627671e-38
-25.28402138 48.87959671 -2.790896177 1.882627671e-38
-25.54441261 48.90032578 -2.797920465 1.873444122e-38
-25.77145386 48.85533905 -2.801251411 1.873444122e-38
-26.03204155 48.87224197 -2.808198452 1.873444122e-38
-26.31325722 48.92517853 -2.81729579 1.873444122e-38
-26.5632515 48.91759872 -2.822984934 1.873444122e-38
-26.79814148 48.88054276 -2.827040911 1.873444122e-38
-27.06606483 48.90185928 -2.834543943 1.873444122e-38
-28.65859032 49.86935043 -2.916969776 1.864260572e-38
-28.67874718 49.44321823 -2.898769855 1.864260572e-38
-28.8946228 48.90523911 -2.880740881 1.864260572e-38
-29.16060829 48.90541458 -2.887633801 1.864260572e-38
-29.69494247 48.90341949 -2.901518583 1.864260572e-38
-30.24681664 48.92131424 -2.916913748 1.864260572e-38
-30.50409889 48.8968811 -2.922746181 1.855077022e-38
-31.0647316 48.91539383 -2.938685894 1.855077022e-38
-31.32575035 48.89100266 -2.944763184 1.855077022e-38
-31.9101963 49.36510849 -2.981021643 1.855077022e-38
-31.88951111 48.90083694 -2.960703373 1.855077022e-38
-33.28549194 48.86603165 -2.998495102 1.845893473e-38
-33.57987213 48.87479019 -3.007295132 1.845893473e-38
-33.86984634 48.87474823 -3.01564312 1.845893473e-38
-34.45871353 48.8803215 -3.032988787 1.845893473e-38
-35.14116287 49.42528534 -3.075536489 1.836709923e-38
-35.34537125 48.87562943 -3.05892539 1.836709923e-38
-35.61745071 48.83722687 -3.065457821 1.836709923e-38
-36.27497864 48.90796661 -3.088104725 1.836709923e-38
-37.80086517 48.88055038 -3.133720875 1.827526374e-38
-38.51623917 49.39398575 -3.176536083 1.818342824e-38
-38.46231842 48.91807938 -3.155857563 1.827526374e-38
-38.74809647 48.8758812 -3.163151264 1.827526374e-38
-39.37845612 48.85890198 -3.18244338 1.818342824e-38
-39.70667648 48.86277771 -3.193069935 1.818342824e-38
-40.35968399 48.8584938 -3.213883638 1.818342824e-38
-40.65284729 48.81237411 -3.221574783 1.818342824e-38
-41.6572113 49.20835114 -3.26970911 1.809159274e-38
-41.72018814 48.88287354 -3.25910759 1.809159274e-38
-42.39214325 48.8690033 -3.280892849 1.809159274e-38
-43.08949661 48.87347031 -3.304342508 1.799975725e-38
-43.43978882 48.87329102 -3.31611228 1.799975725e-38
-43.74863815 48.82406235 -3.324676991 1.799975725e-38
-44.13036346 48.85352707 -3.33873868 1.799975725e-38
-45.04092789 49.46036148 -3.392556906 1.790792175e-38
-44.98286438 48.99944687 -3.373326063 1.790792175e-38
-45.20074844 48.8412323 -3.374909639 1.790792175e-38
-45.57386017 48.8490181 -3.388079405 1.790792175e-38
-46.3248291 48.86042404 -3.41459465 1.790792175e-38
-46.68777084 48.84846497 -3.426844358 1.790792175e-38
-47.06021118 48.8434906 -3.439740181 1.781608625e-38
-48.63609695 49.27571869 -3.511233568 1.772425076e-38
-48.98922729 48.84179306 -3.508264065 1.772425076e-38
-49.35406113 48.81141663 -3.520308018 1.772425076e-38
-50.59637451 48.84720612 -3.566628933 1.763241526e-38
-50.99086761 48.83360672 -3.580582142 1.763241526e-38
-51.86717987 49.27462769 -3.628179312 1.754057977e-38
-52.23722076 48.83320236 -3.626480818 1.754057977e-38
-53.50654602 48.82405853 -3.673449993 1.754057977e-38
-55.38654327 49.32864761 -3.761428595 1.735690877e-38
-55.6313858 48.75036621 -3.751297712 1.744874427e-38
-56.07798767 48.74458694 -3.768164635 1.735690877e-38
-57.4797554 48.75865936 -3.822564363 1.735690877e-38
-60.09910965 50.15523529 -3.969814062 1.708140229e-38
-59.6987114 49.0123024 -3.917211294 1.717323778e-38
-45.66810608 18.34087563 -2.495823622 1.91936187e-38
-79.22834778 6.704318523 -4.032367229 1.698956679e-38
-54.69566345 2.991292968e-05 -4.010402679 1.882627671e-38
-74.9945755 -0.904440403 -5.49916172 1.735690877e-38
-74.96716309 -1.20554471 -5.497463703 1.735690877e-38
-74.98703003 -1.507399797 -5.499319553 1.735690877e-38
-75.00770569 -1.809494019 -5.50132513 1.735690877e-38
-74.99990082 -2.412772894 -5.501997471 1.735690877e-38
-74.97194672 -2.713625193 -5.500702381 1.735690877e-38
-74.92922974 -3.013742447 -5.498413086 1.735690877e-38
-74.92932129 -3.315471888 -5.499353409 1.735690877e-38
-74.93584442 -3.617646933 -5.500855446 1.735690877e-38
-74.87116241 -3.916276693 -5.497218609 1.735690877e-38
-74.86386108 -4.519695282 -5.499172688 1.735690877e-38
-74.80670166 -5.42239666 -5.499378204 1.735690877e-38
-74.78599548 -6.025682449 -5.501239777 1.735690877e-38
-74.73661804 -6.626899719 -5.501349926 1.735690877e-38
-74.69988251 -6.926407814 -5.500650406 1.735690877e-38
-74.64313507 -7.223883152 -5.498566151 1.735690877e-38
-74.62556458 -7.828284264 -5.501729965 1.735690877e-38
-74.53017426 -8.424620628 -5.499513626 1.735690877e-38
-74.51848602 -8.726797104 -5.501194954 1.735690877e-38
-74.39696503 -9.319538116 -5.497578621 1.735690877e-38
-74.39374542 -9.623017311 -5.500153542 1.735690877e-38
-74.30698395 -9.915675163 -5.496642113 1.735690877e-38
-74.19419098 -11.11761665 -5.500812531 1.735690877e-38
-74.13724518 -11.41396904 -5.499948025 1.735690877e-38
-73.97808838 -12.30452633 -5.498749733 1.735690877e-38
-73.9198761 -12.60043049 -5.498143673 1.735690877e-38
-73.85759735 -12.89557743 -5.497323036 1.735690877e-38
-73.86054993 -13.20226765 -5.501448631 1.735690877e-38
-73.77822876 -13.49383831 -5.499313354 1.735690877e-38
-73.72809601 -13.79119396 -5.499664307 1.735690877e-38
-73.59630585 -14.37988853 -5.498279095 1.735690877e-38
-73.58240509 -14.68449974 -5.501606941 1.735690877e-38
-73.45823669 -15.27485561 -5.501327038 1.735690877e-38
-73.37101746 -15.56467247 -5.499438286 1.735690877e-38
-73.29445648 -15.85659218 -5.498431683 1.735690877e-38
-73.23810577 -16.15285492 -5.499031544 1.735690877e-38
-73.17582703 -16.44786072 -5.499275684 1.735690877e-38
-73.11599731 -16.74348068 -5.499792576 1.735690877e-38
-73.00823975 -17.02797699 -5.49679184 1.735690877e-38
-72.96933746 -17.32846642 -5.499063969 1.735690877e-38
-72.91651917 -17.62588882 -5.500378132 1.735690877e-38
-72.72596741 -18.19989395 -5.496864319 1.735690877e-38
-72.68505859 -18.50047874 -5.499349117 1.735690877e-38
-72.62078857 -18.79529381 -5.500158787 1.735690877e-38
-72.45393372 -19.37496758 -5.49914217 1.735690877e-38
-72.35341644 -19.6600647 -5.497467041 1.735690877e-38
-57.98510742 -16.50930214 -4.420558453 1.836709923e-38
-72.06198883 -20.83072472 -5.50006485 1.735690877e-38
-71.96755981 -21.11727333 -5.499291897 1.735690877e-38
-71.83888245 -21.70833778 -5.50261879 1.735690877e-38
-71.70691681 -21.98342896 -5.499237061 1.735690877e-38
-71.66415405 -22.28585625 -5.502781391 1.735690877e-38
-71.54986572 -22.56613541 -5.500927925 1.735690877e-38
-71.42531586 -22.84295654 -5.49836731 1.735690877e-38
-71.33384705 -23.13021851 -5.498440742 1.735690877e-38
-71.22192383 -23.41074562 -5.497022629 1.735690877e-38
-71.16679382 -23.71003151 -5.500079155 1.735690877e-38
-71.07967377 -23.99890518 -5.500758648 1.735690877e-38
-70.78386688 -24.85389519 -5.500662804 1.735690877e-38
-70.66573334 -25.13196754 -5.499289513 1.735690877e-38
-70.54779816 -25.40993309 -5.498016834 1.735690877e-38
-70.43283844 -25.68888283 -5.497061253 1.735690877e-38
-41.43193817 -15.68007851 -3.248154163 1.965279618e-38
-70.06062317 -26.83717155 -5.500982285 1.735690877e-38
-69.93613434 -27.11237717 -5.499720097 1.735690877e-38
-69.700737 -27.66775322 -5.498524666 1.735690877e-38
-69.596138 -27.95061684 -5.499092579 1.735690877e-38
-69.50447083 -28.23879242 -5.50077486 1.735690877e-38
-69.22988129 -28.77785492 -5.497176647 1.735690877e-38
-69.14224243 -29.06794548 -5.499452114 1.735690877e-38
-69.02415466 -29.34533691 -5.499397755 1.735690877e-38
-55.0647583 -23.93512344 -4.402412415 1.836709923e-38
-55.05779266 -24.46022034 -4.417416096 1.836709923e-38
-68.42373657 -30.72820282 -5.499663353 1.735690877e-38
-55.07655334 -25.00068665 -4.434905529 1.836709923e-38
-55.05968857 -25.5288868 -4.44995451 1.836709923e-38
-55.04948044 -25.79350853 -4.457453728 1.836709923e-38
-55.01441193 -26.0473175 -4.463050365 1.836709923e-38
-67.69333649 -32.38409805 -5.502150536 1.735690877e-38
-55.07153702 -26.61846733 -4.484876156 1.836709923e-38
-55.05171585 -26.88242912 -4.492051125 1.827526374e-38
-55.07043457 -27.1662941 -4.502439976 1.827526374e-38
-55.09675598 -27.73223686 -4.522734165 1.827526374e-38
-53.13733292 -27.55413437 -4.388810158 1.845893473e-38
-55.04799271 -29.10882568 -4.565803051 1.827526374e-38
-66.16468048 -35.32830811 -5.49957943 1.735690877e-38
-55.04153442 -29.67413139 -4.584905148 1.818342824e-38
-65.88923645 -35.86499023 -5.50047636 1.735690877e-38
-55.06575394 -30.26109314 -4.607001305 1.818342824e-38
-55.04563904 -30.53878021 -4.61557436 1.818342824e-38
-55.07831573 -30.84712791 -4.628694057 1.818342824e-38
-55.01762009 -31.10434914 -4.634068489 1.818342824e-38
-54.22761154 -31.81905746 -4.610025406 1.818342824e-38
-53.69487762 -31.79730797 -4.575666904 1.827526374e-38
-64.08177948 -38.99967194 -5.500357151 1.735690877e-38
-51.803936 -31.81355858 -4.457449913 1.836709923e-38
-63.28865814 -40.28208923 -5.500676632 1.735690877e-38
-63.1204567 -40.53245544 -5.500173569 1.735690877e-38
-62.9895134 -40.80694199 -5.503014565 1.735690877e-38
-62.5974617 -41.27120972 -5.497574806 1.735690877e-38
-60.55641174 -40.62775421 -5.34683609 1.744874427e-38
-60.42832184 -40.89490891 -5.34999752 1.744874427e-38
-60.23112106 -41.11558914 -5.347129345 1.744874427e-38
-31.25875854 -21.70861816 -2.79046011 2.011197366e-38
-30.54939651 -21.76673317 -2.750347853 2.011197366e-38
-30.53393936 -21.94130325 -2.756887197 2.011197366e-38
-30.31804466 -22.15794945 -2.753398418 2.011197366e-38
-29.3167038 -22.15798378 -2.69447279 2.020380915e-38
-29.08808899 -22.16948318 -2.681629419 2.020380915e-38
-28.82291603 -22.15111351 -2.66537118 2.020380915e-38
-28.61486244 -22.17474174 -2.654352665 2.029564465e-38
-28.37140465 -22.16920853 -2.640015125 2.029564465e-38
-28.17795563 -22.20104218 -2.630297422 2.029564465e-38
-27.93117523 -22.18916702 -2.615566015 2.029564465e-38
-27.71092415 -22.1964798 -2.603276014 2.029564465e-38
-27.23942375 -22.18067169 -2.575652361 2.029564465e-38
-27.0381546 -22.19813728 -2.565037966 2.038748015e-38
-26.81995773 -22.20007896 -2.552784204 2.038748015e-38
-26.63593292 -22.22880745 -2.543753624 2.038748015e-38
-25.62929535 -21.56410217 -2.455873489 2.047931564e-38
-25.21537399 -21.56444168 -2.432737589 2.047931564e-38
-25.19818687 -21.72574043 -2.439498186 2.047931564e-38
-25.07080269 -21.79223251 -2.435625792 2.047931564e-38
-24.9559269 -22.04711914 -2.441609621 2.047931564e-38
-24.94233894 -22.21425819 -2.448996305 2.047931564e-38
-24.73353958 -22.20724297 -2.437240124 2.047931564e-38
-24.54890823 -22.22036743 -2.427829266 2.047931564e-38
-24.33582687 -22.20611763 -2.415564537 2.047931564e-38
-24.1127224 -22.18083191 -2.402251005 2.057115114e-38
-23.93714142 -22.19764328 -2.393629551 2.057115114e-38
-16.70326996 -15.61479664 -1.676596165 2.13976706e-38
-23.57141304 -22.21359825 -2.374838829 2.057115114e-38
-23.17198944 -22.19163322 -2.352496624 2.057115114e-38
-22.8061657 -22.1955452 -2.333398819 2.057115114e-38
-22.13650131 -21.71775055 -2.273795366 2.066298664e-38
-21.78966713 -21.72404289 -2.256038666 2.066298664e-38
-21.40865707 -21.69019508 -2.234575272 2.075482213e-38
-21.23881531 -21.69186783 -2.225931883 2.075482213e-38
-21.06365967 -21.6866703 -2.216692924 2.075482213e-38
-20.7175808 -21.67634583 -2.198541641 2.075482213e-38
-20.22381973 -21.67717552 -2.173728466 2.075482213e-38
-19.90880013 -21.68646622 -2.158541203 2.084665763e-38
-19.46883583 -21.72745514 -2.139094591 2.084665763e-38
-19.40082169 -21.8274765 -2.141245842 2.084665763e-38
-19.193367 -21.94691658 -2.137754202 2.084665763e-38
-17.27259636 -20.07401657 -1.941733241 2.103032862e-38
-17.16047287 -20.10663986 -1.938199997 2.103032862e-38
-17.01919174 -20.10421371 -1.931356311 2.103032862e-38
-16.91054916 -20.13949585 -1.928199649 2.103032862e-38
-16.82177734 -20.19809723 -1.927322984 2.103032862e-38
-16.71298027 -20.23232269 -1.924156189 2.112216412e-38
-16.41243172 -20.19701767 -1.908192277 2.112216412e-38
-16.1978302 -20.09747505 -1.892619729 2.112216412e-38
-16.05529404 -20.08532524 -1.885382056 2.112216412e-38
-15.94636726 -20.1143322 -1.882071853 2.112216412e-38
-15.80065346 -20.0959549 -1.874393344 2.112216412e-38
-15.6746006 -20.10140991 -1.869009733 2.112216412e-38
-15.52261734 -20.07238007 -1.860493898 2.112216412e-38
-15.41037941 -20.09365273 -1.856708527 2.112216412e-38
-15.27770424 -20.08734703 -1.850436449 2.112216412e-38
-15.1288929 -20.05853271 -1.842164874 2.121399961e-38
-15.01934719 -20.08069038 -1.83863914 2.121399961e-38
-14.91451836 -20.10856438 -1.835687757 2.121399961e-38
-14.76433563 -20.07424355 -1.827121139 2.121399961e-38
-14.64654446 -20.08273315 -1.822519541 2.121399961e-38
-14.54077625 -20.10698509 -1.819401383 2.121399961e-38
-14.04606247 -20.09562874 -1.797703385 2.121399961e-38
-13.92440891 -20.09312057 -1.792457461 2.121399961e-38
-13.53288937 -20.04012299 -1.773041248 2.121399961e-38
-13.43948364 -20.07534027 -1.771362305 2.121399961e-38
-13.31678295 -20.06608582 -1.765807629 2.121399961e-38
-13.08895302 -20.07118034 -1.756938696 2.130583511e-38
-12.87875175 -20.10021973 -1.750360131 2.130583511e-38
-12.74611282 -20.07036591 -1.743284106 2.130583511e-38
-12.62173367 -20.05219078 -1.737284303 2.130583511e-38
-12.52379513 -20.07513046 -1.73489666 2.130583511e-38
-12.30687523 -20.08523369 -1.727162242 2.130583511e-38
-12.19667435 -20.0861969 -1.723014832 2.130583511e-38
-11.96813679 -20.07182121 -1.713472247 2.130583511e-38
-11.8700552 -20.0904808 -1.71097827 2.130583511e-38
-11.55568218 -20.10822105 -1.700496197 2.130583511e-38
-11.43807793 -20.09011269 -1.69506216 2.130583511e-38
-11.32479572 -20.07843781 -1.690222502 2.130583511e-38
-11.02249527 -20.10530281 -1.681171417 2.13976706e-38
-10.89321804 -20.06037903 -1.673739433 2.13976706e-38
-10.80210495 -20.08469963 -1.672132254 2.13976706e-38
-10.68459034 -20.05908966 -1.666410804 2.13976706e-38
-10.59585476 -20.08670044 -1.665151834 2.13976706e-38
-10.48131943 -20.06461525 -1.659814715 2.13976706e-38
-10.41021538 -20.1252327 -1.661354065 2.13976706e-38
-10.08840275 -20.09323883 -1.648549199 2.13976706e-38
-9.985414505 -20.0891037 -1.644902945 2.13976706e-38
-9.867339134 -20.05340958 -1.638719559 2.13976706e-38
-9.568693161 -20.05340958 -1.62917006 2.13976706e-38
-9.497588158 -20.11200905 -1.630816221 2.13976706e-38
-8.990049362 -20.07241821 -1.612625718 2.13976706e-38
-8.905010223 -20.09873772 -1.61185348 2.13976706e-38
-8.732169151 -20.1443882 -1.609830618 2.14895061e-38
-8.558761597 -20.18759537 -1.607730865 2.14895061e-38
-8.468397141 -20.20002937 -1.605999708 2.14895061e-38
-8.399621964 -20.26407051 -1.608391404 2.14895061e-38
-8.30923748 -20.27603722 -1.606677532 2.14895061e-38
-8.250203133 -20.36493111 -1.611080527 2.13976706e-38
-8.206581116 -20.4935894 -1.618633509 2.13976706e-38
-8.07292366 -20.63912582 -1.624951243 2.13976706e-38
-8.023283005 -20.7578125 -1.631743193 2.13976706e-38
-8.042733192 -21.3161869 -1.670499206 2.13976706e-38
-8.031014442 -21.54698563 -1.686043024 2.13976706e-38
-7.928999424 -21.53744888 -1.682782173 2.13976706e-38
-7.818117142 -21.50247574 -1.677622795 2.13976706e-38
-7.726522923 -21.51955032 -1.676480889 2.13976706e-38
-7.57056427 -21.63040543 -1.680322528 2.13976706e-38
-7.482056618 -21.65634155 -1.67998755 2.13976706e-38
-7.352890491 -21.85008621 -1.690376163 2.130583511e-38
-7.301791191 -21.99028587 -1.698937893 2.130583511e-38
-7.174109459 -22.20099258 -1.710704446 2.130583511e-38
-6.913837433 -22.31165314 -1.712681532 2.130583511e-38
-6.697384834 -22.90976715 -1.750100851 2.130583511e-38
-6.506300449 -22.9393158 -1.748305678 2.130583511e-38
-6.303919792 -22.9263649 -1.743399143 2.130583511e-38
-6.205236435 -22.92764473 -1.741585493 2.130583511e-38
-5.994732857 -22.87766266 -1.734071732 2.130583511e-38
-5.911777973 -22.93672562 -1.73673296 2.130583511e-38
-5.738750458 -23.0299263 -1.740240335 2.130583511e-38
-5.644787788 -23.04732895 -1.739826441 2.130583511e-38
-5.567909241 -23.13556671 -1.744783759 2.130583511e-38
-5.472122192 -23.14615822 -1.74390924 2.130583511e-38
-5.409897327 -23.30095673 -1.753920317 2.130583511e-38
-5.296665192 -23.67568779 -1.77886343 2.121399961e-38
-5.267047882 -24.46487045 -1.834917426 2.121399961e-38
-5.256549835 -24.90225601 -1.866122842 2.112216412e-38
-5.256772518 -25.40830231 -1.902445674 2.112216412e-38
-5.258963108 -25.94415283 -1.940968752 2.103032862e-38
-6.831813812 -34.41348648 -2.572513342 2.038748015e-38
-6.912780762 -39.82805252 -2.963938236 1.992830267e-38
-6.66454649 -40.31917191 -2.996437788 1.983646717e-38
-7.247001171 -44.96559143 -3.339520931 1.946912519e-38
-7.219824791 -45.97266006 -3.412129879 1.946912519e-38
-7.030306339 -45.97090912 -3.40987587 1.946912519e-38
-6.838362694 -45.9512291 -3.406345606 1.946912519e-38
-6.948492527 -49.41685104 -3.658993006 1.91936187e-38
-6.75919199 -49.51325989 -3.664090395 1.91936187e-38
-7.041829109 -58.60003281 -4.327592373 1.845893473e-38
-6.814966202 -58.70346832 -4.333172321 1.845893473e-38
-6.925051689 -64.15016937 -4.730954647 1.809159274e-38
-6.734470367 -64.82591248 -4.778746605 1.799975725e-38
-6.778896332 -70.78632355 -5.213950634 1.763241526e-38
-6.354486942 -72.49208069 -5.33565712 1.744874427e-38
-6.062866688 -72.51489258 -5.335501194 1.744874427e-38
-5.189228058 -72.60105896 -5.336846828 1.744874427e-38
-4.898557186 -72.63933563 -5.338170052 1.744874427e-38
-4.606663704 -72.66073608 -5.338338375 1.744874427e-38
-4.021112919 -72.67398071 -5.336763382 1.744874427e-38
-3.730010033 -72.70993805 -5.338259697 1.744874427e-38
-3.437575579 -72.72248077 -5.338123322 1.744874427e-38
-0.5595254302 -15.90037441 -1.166568637 2.194868358e-38
-0.4929910004 -15.8187418 -1.160426378 2.194868358e-38
-0.3026130497 -15.84553432 -1.16203928 2.194868358e-38
-0.6715273261 -60.73955154 -4.453826904 1.836709923e-38
0.07252138853 -72.18015289 -5.292406559 1.754057977e-38
0.3627443314 -72.19462585 -5.293531895 1.754057977e-38
0.9431637526 -72.19077301 -5.293634415 1.754057977e-38
1.814441323 -72.20326233 -5.295770168 1.754057977e-38
2.462573051 -74.22707367 -5.445483208 1.735690877e-38
2.760989189 -74.21764374 -5.445561886 1.735690877e-38
3.653544188 -74.13300323 -5.44218874 1.735690877e-38
3.953517437 -74.15509033 -5.444931984 1.735690877e-38
4.252011299 -74.14585114 -5.445465088 1.735690877e-38
4.549250603 -74.11537933 -5.444526196 1.735690877e-38
5.444005966 -74.07279205 -5.445824146 1.735690877e-38
5.740583897 -74.03555298 -5.444739819 1.735690877e-38
6.332298279 -73.94804382 -5.441873074 1.735690877e-38
6.631833553 -73.94769287 -5.443763733 1.735690877e-38
7.227846622 -73.90927124 -5.445037365 1.735690877e-38
8.70899868 -73.72522736 -5.443277836 1.735690877e-38
9.309605598 -73.71723175 -5.448037624 1.735690877e-38
9.599675179 -73.63162994 -5.444519043 1.735690877e-38
9.895586967 -73.59267426 -5.444535255 1.735690877e-38
10.18918324 -73.53652954 -5.443368912 1.735690877e-38
10.48928928 -73.52710724 -5.445748806 1.735690877e-38
11.37349701 -73.38401031 -5.444913864 1.735690877e-38
11.96314907 -73.29026794 -5.444919109 1.735690877e-38
12.25802517 -73.24364471 -5.445072174 1.735690877e-38
13.13659 -73.06919861 -5.443485737 1.735690877e-38
13.42936039 -73.0111618 -5.443140984 1.735690877e-38
13.72803688 -72.98470306 -5.445238113 1.735690877e-38
14.02274227 -72.93618011 -5.445778847 1.735690877e-38
14.31364155 -72.86807251 -5.444945335 1.735690877e-38
14.60469532 -72.80130768 -5.444300175 1.735690877e-38
14.90516663 -72.78076172 -5.447200775 1.735690877e-38
15.47968388 -72.61099243 -5.443630695 1.735690877e-38
15.77655602 -72.57159424 -5.445385933 1.735690877e-38
16.07087135 -72.51985931 -5.446321964 1.735690877e-38
16.36159706 -72.4516983 -5.446089745 1.735690877e-38
16.65299797 -72.38645935 -5.446174145 1.735690877e-38
17.22591019 -72.21463013 -5.443489552 1.735690877e-38
17.81189346 -72.09780884 -5.445303917 1.735690877e-38
18.10265541 -72.02998352 -5.445625305 1.735690877e-38
18.14803886 -71.00186157 -5.373376846 1.744874427e-38
18.43803787 -69.7928009 -5.292922497 1.754057977e-38
19.00337219 -69.65994263 -5.294263363 1.754057977e-38
19.55780792 -69.48709106 -5.292906284 1.754057977e-38
19.83456612 -69.39942932 -5.292259216 1.754057977e-38
20.1116848 -69.31330109 -5.29181385 1.754057977e-38
20.39802933 -69.25857544 -5.293854237 1.754057977e-38
20.94163322 -69.0510025 -5.290679932 1.754057977e-38
21.22928619 -68.99959564 -5.29323864 1.754057977e-38
21.508955 -68.92157745 -5.293848515 1.754057977e-38
22.06060219 -68.74085236 -5.293420315 1.754057977e-38
22.33550072 -68.64779663 -5.293125629 1.754057977e-38
21.97088814 -66.61585236 -5.143218517 1.763241526e-38
22.89333534 -68.48582458 -5.29465723 1.754057977e-38
23.44337463 -68.30014801 -5.294704914 1.754057977e-38
23.72340775 -68.22157288 -5.295961857 1.754057977e-38
24.26905823 -68.0228653 -5.295513153 1.754057977e-38
21.93281555 -59.20875931 -4.629598618 1.818342824e-38
22.14504242 -59.05176163 -4.62424612 1.818342824e-38
22.39423943 -58.99388504 -4.626726627 1.818342824e-38
22.70399666 -59.09278488 -4.641602993 1.818342824e-38
26.19330978 -67.36449432 -5.299555779 1.754057977e-38
26.46206665 -67.25395966 -5.299186707 1.754057977e-38
27.26191521 -66.90718842 -5.297384262 1.754057977e-38
22.64925385 -52.53924942 -4.195001602 1.864260572e-38
28.89320564 -66.28899384 -5.302083015 1.754057977e-38
29.42549133 -66.05516052 -5.302131176 1.754057977e-38
29.95599556 -65.81728363 -5.302199841 1.754057977e-38
30.49146271 -65.58988953 -5.303459644 1.754057977e-38
21.92658997 -46.67440414 -3.781088591 1.90099477e-38
22.13865852 -46.63769913 -3.785294294 1.90099477e-38
30.25906372 -61.18494034 -5.004852295 1.781608625e-38
30.2672348 -60.5873642 -4.965882778 1.781608625e-38
30.26075745 -59.97011948 -4.925223827 1.790792175e-38
30.25931358 -58.78733063 -4.847907066 1.799975725e-38
30.25429344 -58.2013588 -4.809578419 1.799975725e-38
30.26861954 -57.10237122 -4.738719463 1.809159274e-38
30.35446739 -56.71222305 -4.716426849 1.809159274e-38
30.63632965 -56.68986511 -4.72477293 1.809159274e-38
30.91972351 -56.66846466 -4.733309269 1.809159274e-38
22.01509666 -38.84934235 -3.274090528 1.956096068e-38
22.43877792 -38.86516953 -3.290522575 1.956096068e-38
22.6967926 -38.94960022 -3.305369616 1.956096068e-38
33.94290543 -56.66674805 -4.843281746 1.799975725e-38
34.27605438 -56.7045517 -4.858251572 1.799975725e-38
34.58123398 -56.69334793 -4.869163036 1.790792175e-38
35.18204498 -56.64876938 -4.889471054 1.790792175e-38
36.1472702 -56.66655731 -4.928275585 1.790792175e-38
36.46237946 -56.65695953 -4.9401474 1.790792175e-38
37.10052872 -56.64257431 -4.964743137 1.781608625e-38
37.44442368 -56.66928864 -4.980237007 1.781608625e-38
21.79798508 -32.70300674 -2.8816998 2.002013816e-38
21.87036705 -32.52749634 -2.873957396 2.002013816e-38
21.91961288 -32.31939316 -2.863333464 2.002013816e-38
21.9226265 -32.04573822 -2.846874475 2.002013816e-38
36.05967712 -50.50198746 -4.54999876 1.827526374e-38
30.22926331 -41.97850037 -3.792962551 1.90099477e-38
30.21958351 -41.26144409 -3.750004053 1.91017832e-38
30.20919991 -40.55916214 -3.70813036 1.91017832e-38
22.3685894 -29.53364372 -2.716474056 2.020380915e-38
30.24228859 -39.59768677 -3.653307438 1.91936187e-38
30.20784378 -39.22467422 -3.630068064 1.91936187e-38
30.2114563 -38.90483475 -3.611678839 1.91936187e-38
30.23109436 -38.60871506 -3.595441818 1.91936187e-38
30.20344353 -38.2556076 -3.573836327 1.928545419e-38
30.20423126 -37.94195175 -3.555850029 1.928545419e-38
21.676548 -27.00615311 -2.539114475 2.038748015e-38
21.74580383 -26.87046432 -2.534552336 2.038748015e-38
22.02226067 -26.33462143 -2.517088413 2.038748015e-38
22.12042427 -26.23695374 -2.516232967 2.038748015e-38
22.42641258 -26.16997719 -2.527022362 2.038748015e-38
22.51978111 -26.06615067 -2.525716543 2.038748015e-38
22.61597252 -25.96574211 -2.524779081 2.038748015e-38
30.20967293 -34.40391541 -3.357045174 1.946912519e-38
30.18402672 -34.09729767 -3.338937759 1.946912519e-38
30.22150803 -33.59155655 -3.313100338 1.956096068e-38
30.20143318 -33.03122711 -3.281679392 1.956096068e-38
30.22323608 -32.78942871 -3.269699812 1.956096068e-38
30.19886971 -32.49984741 -3.252902746 1.956096068e-38
30.19953156 -32.23968124 -3.238987923 1.965279618e-38
30.20411491 -31.98591042 -3.225663662 1.965279618e-38
30.20018387 -31.72527122 -3.211596966 1.965279618e-38
30.22243881 -31.49417686 -3.200475216 1.965279618e-38
30.19465065 -30.22508621 -3.132558346 1.974463167e-38
30.21735001 -30.00555229 -3.122371435 1.974463167e-38
30.16088104 -29.23560524 -3.079879761 1.974463167e-38
30.18371582 -29.02330017 -3.070272446 1.983646717e-38
30.19317627 -28.56878662 -3.047772646 1.983646717e-38
30.17774773 -28.32516098 -3.034697533 1.983646717e-38
30.19483948 -27.88796806 -3.013769627 1.983646717e-38
30.18770218 -27.43496132 -2.99094677 1.992830267e-38
30.16951942 -27.19778633 -2.978287697 1.992830267e-38
30.16452026 -26.9742527 -2.967063904 1.992830267e-38
30.20270538 -26.57449913 -2.949709892 1.992830267e-38
30.19116592 -26.34978676 -2.938212633 1.992830267e-38
30.18581963 -25.92052269 -2.917316437 1.992830267e-38
30.19825172 -25.72101212 -2.908501625 2.002013816e-38
30.20492363 -25.51789665 -2.899240971 2.002013816e-38
30.20667076 -24.90132332 -2.870371103 2.002013816e-38
20.46872139 -16.73594475 -1.938616395 2.103032862e-38
20.54678345 -16.66239738 -1.939649224 2.103032862e-38
20.6432724 -16.60353661 -1.942440987 2.103032862e-38
30.20561028 -24.09529114 -2.833085775 2.002013816e-38
23.1679039 -18.32933235 -2.16606617 2.075482213e-38
23.26686859 -18.25602341 -2.168439627 2.075482213e-38
23.31303978 -17.99132347 -2.159192324 2.084665763e-38
23.38684464 -17.89873314 -2.159345865 2.084665763e-38
23.6386013 -17.64347839 -2.162788391 2.084665763e-38
24.03019142 -17.78577614 -2.192055464 2.075482213e-38
31.1784935 -22.88314438 -2.835715532 2.002013816e-38
31.41667747 -22.86419487 -2.848995686 2.002013816e-38
31.66149712 -22.84825516 -2.862844944 2.002013816e-38
31.97015953 -22.87611198 -2.88241601 2.002013816e-38
32.48484421 -22.85173035 -2.912159681 1.992830267e-38
33.05619812 -22.85860634 -2.946809053 1.992830267e-38
33.3374176 -22.85553169 -2.963664532 1.992830267e-38
33.66217041 -22.87982178 -2.984335661 1.992830267e-38
33.94235611 -22.87130737 -3.001000643 1.983646717e-38
34.22725677 -22.86375046 -3.018038273 1.983646717e-38
34.82197571 -22.85829544 -3.054174662 1.983646717e-38
35.44216156 -22.85978889 -3.092349291 1.974463167e-38
35.72463989 -22.83915901 -3.10896039 1.974463167e-38
29.28669357 -18.55787277 -2.542180061 2.038748015e-38
29.08746529 -18.26815987 -2.518492222 2.038748015e-38
29.21694183 -18.18610954 -2.523352385 2.038748015e-38
29.26129532 -17.88894272 -2.514680386 2.038748015e-38
29.23708153 -17.71305847 -2.506460428 2.038748015e-38
38.76718521 -22.85227394 -3.299595356 1.956096068e-38
39.86396027 -22.85555077 -3.369240284 1.946912519e-38
40.21986389 -22.84526443 -3.391531229 1.946912519e-38
40.99342728 -22.85069847 -3.441158533 1.937728969e-38
41.38755035 -22.85281181 -3.466502666 1.937728969e-38
42.16506958 -22.84169769 -3.51612854 1.928545419e-38
42.59078598 -22.85134125 -3.543939829 1.928545419e-38
33.56439209 -17.83499146 -2.786839962 2.011197366e-38
36.01948547 -18.58601379 -2.971894264 1.992830267e-38
35.76383591 -18.0914917 -2.938704014 1.992830267e-38
35.98877335 -18.02396393 -2.951210737 1.992830267e-38
35.81822586 -17.75879097 -2.931346893 1.992830267e-38
36.03905869 -17.68815041 -2.943576097 1.992830267e-38
36.45577621 -17.71118927 -2.971776247 1.992830267e-38
47.94060898 -22.81627083 -3.892906666 1.891811221e-38
48.45533371 -22.82279968 -3.927221298 1.891811221e-38
50.52610016 -22.81282616 -4.064795017 1.873444122e-38
51.08333588 -22.81764221 -4.102210045 1.873444122e-38
51.67430496 -22.83290482 -4.142264366 1.864260572e-38
52.19930267 -22.81447983 -4.176961422 1.864260572e-38
52.75071716 -22.80337524 -4.213716984 1.855077022e-38
43.47550201 -18.38040924 -3.460899115 1.937728969e-38
43.54644394 -18.20438957 -3.460691929 1.937728969e-38
43.58005905 -18.01299286 -3.457582474 1.937728969e-38
43.60289764 -17.81754494 -3.453682661 1.937728969e-38
43.87348557 -17.51782608 -3.46384716 1.937728969e-38
57.77577209 -22.7998848 -4.554171562 1.827526374e-38
58.43278885 -22.78812408 -4.598702908 1.818342824e-38
59.1471138 -22.79321098 -4.647671223 1.818342824e-38
68.08007813 -25.92177391 -5.341371059 1.744874427e-38
49.62931061 -18.21438408 -3.876261473 1.891811221e-38
49.73995209 -17.80255318 -3.873599291 1.891811221e-38
68.83525085 -24.01444244 -5.34547472 1.744874427e-38
68.89753723 -23.72598076 -5.342865467 1.744874427e-38
68.99658966 -23.45022964 -5.34319067 1.744874427e-38
69.09331512 -23.17367172 -5.343423843 1.744874427e-38
53.75681686 -17.78978539 -4.151700974 1.864260572e-38
56.37541199 -18.15480232 -4.342616558 1.845893473e-38
69.6726532 -21.51314163 -5.346534729 1.744874427e-38
69.80082703 -20.93951225 -5.343279362 1.744874427e-38
69.88978577 -20.66034698 -5.343688965 1.744874427e-38
63.23476028 -17.8666954 -4.818026066 1.799975725e-38
63.45939255 -17.65499115 -4.829697609 1.799975725e-38
70.34068298 -19.265131 -5.347471237 1.744874427e-38
70.4786911 -18.6951313 -5.346364498 1.744874427e-38
70.5699234 -18.41596222 -5.347624302 1.744874427e-38
70.69549561 -17.84292793 -5.346097946 1.744874427e-38
70.8791275 -17.28430939 -5.349302769 1.744874427e-38
70.91873169 -16.99223328 -5.347092628 1.744874427e-38
71.01834869 -16.41350365 -5.344481468 1.744874427e-38
71.30161285 -15.27556896 -5.346619606 1.744874427e-38
71.45764923 -14.40995693 -5.344901562 1.744874427e-38
71.53349304 -14.12621021 -5.346282005 1.744874427e-38
71.61523438 -13.84348774 -5.3481884 1.744874427e-38
71.67185211 -13.55576324 -5.348303318 1.744874427e-38
71.74520874 -13.27114773 -5.34975338 1.744874427e-38
73.88290405 -13.05311871 -5.501148224 1.735690877e-38
73.9058609 -12.7509737 -5.498997688 1.735690877e-38
66.79103088 -11.24719524 -4.966210365 1.781608625e-38
66.6317749 -10.1214447 -4.941626549 1.790792175e-38
66.73677826 -9.863093376 -4.946434021 1.790792175e-38
67.16088867 -9.650071144 -4.974958897 1.781608625e-38
69.27710724 -9.670033455 -5.128793716 1.772425076e-38
74.32241821 -10.0699358 -5.499270916 1.735690877e-38
74.35162354 -9.76962471 -5.498482227 1.735690877e-38
74.4333725 -9.476128578 -5.501666546 1.735690877e-38
74.47828674 -9.177728653 -5.502213955 1.735690877e-38
74.50506592 -8.573544502 -5.498921871 1.735690877e-38
74.58772278 -7.975996971 -5.50011158 1.735690877e-38
74.67737579 -7.378770351 -5.50217104 1.735690877e-38
74.6808548 -7.076128483 -5.500286579 1.735690877e-38
74.71038055 -6.775994778 -5.500409603 1.735690877e-38
74.83158112 -5.575451851 -5.502022266 1.735690877e-38
74.84570313 -4.971796036 -5.499941826 1.735690877e-38
74.86743164 -4.671007156 -5.500114441 1.735690877e-38
74.88782501 -4.370152473 -5.500277042 1.735690877e-38
74.91231537 -3.767525673 -5.499673367 1.735690877e-38
74.93156433 -3.164769888 -5.499040127 1.735690877e-38
74.93471527 -2.863121271 -5.498383522 1.735690877e-38
74.94436646 -2.260255098 -5.497581005 1.735690877e-38
74.96208954 -1.959206581 -5.498258114 1.735690877e-38
74.96426392 -1.65775156 -5.497883797 1.735690877e-38
74.97802734 -1.356519818 -5.498450756 1.735690877e-38
74.98925781 -0.7536974549 -5.498651505 1.735690877e-38
75.00675964 -0.4523371458 -5.499755859 1.735690877e-38
75.00391388 0.1507257074 -5.499457836 1.735690877e-38
75.04309082 0.7541918159 -5.502599239 1.735690877e-38
75.01696777 1.055536389 -5.500950813 1.735690877e-38
74.98542023 1.959777236 -5.499969006 1.735690877e-38
74.96315765 2.260785103 -5.498959541 1.735690877e-38
74.93848419 2.561630249 -5.497860432 1.735690877e-38
72.88655853 2.784857512 -5.348099709 1.744874427e-38
72.84585571 3.076546192 -5.34597683 1.744874427e-38
72.8238678 3.369100094 -5.345315456 1.744874427e-38
72.81253052 3.955400467 -5.346642971 1.744874427e-38
72.76837921 4.83387661 -5.3472929 1.744874427e-38
72.74654388 5.12620163 -5.347159386 1.744874427e-38
72.74914551 5.420367718 -5.348910809 1.744874427e-38
72.73281097 5.713270187 -5.349352837 1.744874427e-38
72.64130402 6.293994427 -5.346173286 1.744874427e-38
72.63197327 6.587461948 -5.347391605 1.744874427e-38
72.56313324 6.875411987 -5.344316006 1.744874427e-38
69.88964081 6.90571928 -5.149415016 1.763241526e-38
67.15630341 6.908349037 -4.950027466 1.781608625e-38
58.04869843 6.916397572 -4.286362648 1.855077022e-38
54.30006409 6.91292572 -4.013529778 1.882627671e-38
52.60282898 6.911878586 -3.890105247 1.891811221e-38
51.02320862 6.913074493 -3.775311708 1.90099477e-38
49.58205414 6.920902729 -3.670706749 1.91936187e-38
48.16704941 6.920907497 -3.567980289 1.928545419e-38
46.79470444 6.91583252 -3.468358278 1.937728969e-38
45.53546906 6.916890621 -3.377058744 1.946912519e-38
42.10718155 6.916635513 -3.128764868 1.974463167e-38
40.10818481 6.919888496 -2.98426795 1.992830267e-38
39.90184784 7.049585819 -2.970999718 1.992830267e-38
39.82662201 7.201503277 -2.967530251 1.992830267e-38
56.94187164 10.53286171 -4.245923519 1.855077022e-38
67.20559692 12.71101093 -5.015020847 1.781608625e-38
67.19115448 12.98826218 -5.017798901 1.781608625e-38
67.09064484 13.24881935 -5.014229774 1.781608625e-38
67.03754425 13.51856995 -5.014282227 1.781608625e-38
45.60327148 9.769955635 -3.419589758 1.946912519e-38
44.95862579 9.821044922 -3.374196291 1.946912519e-38
44.95005417 10.00866127 -3.376563787 1.946912519e-38
44.90877533 10.1891222 -3.37647295 1.946912519e-38
44.90625 10.37851524 -3.379364967 1.946912519e-38
21.5574913 5.07365036 -1.623855829 2.13976706e-38
21.51811028 5.155764103 -1.622410655 2.13976706e-38
21.53965569 5.252568722 -1.625613809 2.13976706e-38
66.38899231 16.47233582 -5.015382767 1.781608625e-38
66.32131195 16.73887444 -5.015312672 1.781608625e-38
66.25772095 17.00642967 -5.01563406 1.781608625e-38
35.03615189 9.747374535 -2.666491985 2.020380915e-38
