# .PCD v0.7 - Point Cloud Data file format
VERSION 0.7
FIELDS x y z rgb
SIZE 4 4 4 4
TYPE F F F F
COUNT 1 1 1 1
WIDTH 898
HEIGHT 1
VIEWPOINT 0 0 0 1 0 0 0
POINTS 898
DATA ascii
-20.21149254 6.196317196 -5.473516464 2.14895061e-38
-20.28295326 6.129130363 -5.486151218 2.14895061e-38
-20.28635979 6.041277885 -5.480460167 2.14895061e-38
-20.33711624 5.967494488 -5.487648487 2.14895061e-38
-20.382164 5.891813755 -5.493366718 2.14895061e-38
-20.37911034 5.802275658 -5.48621273 2.14895061e-38
-20.39289856 5.71768856 -5.483694553 2.14895061e-38
-20.4557476 5.646697044 -5.494443893 2.14895061e-38
-20.45564842 5.558275223 -5.488371849 2.14895061e-38
-20.44946861 5.468430042 -5.480773449 2.14895061e-38
-20.54375839 5.229008198 -5.488745689 2.14895061e-38
-20.53547096 5.139081001 -5.480966568 2.14895061e-38
-20.59297562 5.06559515 -5.490836143 2.14895061e-38
-20.57695198 4.886533737 -5.475907326 2.14895061e-38
-20.63469315 4.812716961 -5.486083031 2.14895061e-38
-20.6510849 4.641794205 -5.480341434 2.14895061e-38
-20.69716263 4.564840794 -5.487656116 2.14895061e-38
-20.76039696 4.316925526 -5.490222931 2.14895061e-38
-20.78307724 4.060788155 -5.48286581 2.14895061e-38
-20.86751366 3.990277052 -5.500865936 2.14895061e-38
-20.85273933 3.813924313 -5.488709927 2.14895061e-38
-20.86950493 3.73035121 -5.489132404 2.14895061e-38
-20.90426636 3.56337285 -5.490560532 2.14895061e-38
-20.89451981 3.475340843 -5.484287262 2.14895061e-38
-20.92160034 3.393452168 -5.487770557 2.14895061e-38
-20.96912575 3.142123938 -5.489896774 2.14895061e-38
-20.96361542 2.969176054 -5.482026577 2.14895061e-38
-20.97436905 2.88473177 -5.481761932 2.14895061e-38
-20.96750259 2.797959805 -5.476984024 2.14895061e-38
-21.02776909 2.720020771 -5.489826202 2.14895061e-38
-21.03960991 2.463951111 -5.484759331 2.14895061e-38
-21.06464005 2.381073236 -5.488745689 2.14895061e-38
-21.12111855 2.044080734 -5.494185448 2.14895061e-38
-21.16748428 1.876942515 -5.50214386 2.14895061e-38
-21.13693047 1.703067422 -5.490466118 2.14895061e-38
-21.17865181 1.364084244 -5.494894028 2.14895061e-38
-21.18605042 1.279070973 -5.495434761 2.14895061e-38
-21.15628624 1.191942453 -5.486426353 2.14895061e-38
-21.14295959 1.105922341 -5.481773376 2.14895061e-38
-21.16054344 1.021572232 -5.48522377 2.14895061e-38
-21.1835041 0.9373495579 -5.490154743 2.14895061e-38
-21.19273567 0.8523925543 -5.491614819 2.14895061e-38
-21.20387268 0.6821441054 -5.492902756 2.14895061e-38
-21.18099022 0.5961850286 -5.486309528 2.14895061e-38
-21.18250847 0.3406390548 -5.485239029 2.14895061e-38
-21.19327164 0.2556021512 -5.487715721 2.14895061e-38
-21.2039814 0.1704880744 -5.490267277 2.14895061e-38
-21.19742584 0.08520687371 -5.488436699 2.14895061e-38
-19.33985901 8.775680726e-06 -5.474977016 2.15813416e-38
-19.30794144 -0.07761534303 -5.465985298 2.15813416e-38
-19.30073929 -0.2327704877 -5.464300156 2.15813416e-38
-19.35394669 -0.3112276495 -5.479672909 2.15813416e-38
-19.29990768 -0.5432298779 -5.465830803 2.15813416e-38
-19.32040977 -0.621547401 -5.472305775 2.15813416e-38
-19.30352211 -0.9319085479 -5.471055031 2.15813416e-38
-19.31442451 -1.010277629 -5.475251675 2.15813416e-38
-19.30280876 -1.165355444 -5.474438667 2.15813416e-38
-19.33471298 -1.323372126 -5.486332417 2.15813416e-38
-19.29475212 -1.398591042 -5.476545334 2.15813416e-38
-19.27507019 -1.475078583 -5.472590446 2.15813416e-38
-19.28264427 -1.553648472 -5.476477146 2.15813416e-38
-19.25437164 -1.629299402 -5.470263004 2.15813416e-38
-19.27385139 -1.709012985 -5.477700233 2.15813416e-38
-19.25667191 -1.785540104 -5.474817276 2.15813416e-38
-19.29335785 -1.86719358 -5.487332344 2.15813416e-38
-19.27019691 -1.943175793 -5.482922077 2.15813416e-38
-19.22137642 -2.094492197 -5.47364521 2.15813416e-38
-19.21810913 -2.172345877 -5.475158215 2.15813416e-38
-19.17819023 -2.402408361 -5.471641541 2.15813416e-38
-19.18759155 -2.481963396 -5.477126598 2.15813416e-38
-19.16522408 -2.635910273 -5.476614952 2.15813416e-38
-19.11690712 -2.864570618 -5.472286224 2.15813416e-38
-19.08670044 -3.017139673 -5.470401764 2.15813416e-38
-19.05666542 -3.327304125 -5.476426601 2.15813416e-38
-19.01761246 -3.399320602 -5.469085693 2.15813416e-38
-18.98878098 -3.472997904 -5.464760303 2.15813416e-38
-19.01214981 -3.556315184 -5.475561142 2.15813416e-38
-18.97059822 -3.627534151 -5.467751026 2.15813416e-38
-18.99973679 -3.712337732 -5.480400085 2.15813416e-38
-18.97366714 -3.786488056 -5.477227211 2.15813416e-38
-18.88188553 -3.84716177 -5.455152035 2.15813416e-38
-18.89441872 -4.087634087 -5.472614765 2.15813416e-38
-18.90744019 -4.170085907 -5.481202126 2.15813416e-38
-18.82771111 -4.391255856 -5.473040104 2.15813416e-38
-18.77933693 -4.539470196 -5.469409943 2.15813416e-38
-18.77449417 -4.618264675 -5.4733634 2.15813416e-38
-18.74897575 -4.691988945 -5.471378803 2.15813416e-38
-18.74412918 -4.85124445 -5.481169224 2.15813416e-38
-18.68000603 -4.914857864 -5.468151569 2.15813416e-38
-18.66702271 -4.991762161 -5.470179558 2.15813416e-38
-18.66823578 -5.072584629 -5.476468086 2.15813416e-38
-18.62877083 -5.223050117 -5.477034092 2.15813416e-38
-18.57935715 -5.289848328 -5.468713284 2.15813416e-38
-18.57944679 -5.370704651 -5.475049973 2.15813416e-38
-18.55031586 -5.44317627 -5.472867489 2.15813416e-38
-18.52491379 -5.516709805 -5.471874237 2.15813416e-38
-18.48440361 -5.585635185 -5.466496944 2.15813416e-38
-18.46693993 -5.661469936 -5.468016624 2.15813416e-38
-18.4885025 -5.749488831 -5.481201649 2.15813416e-38
-18.4479847 -5.818316936 -5.476079941 2.15813416e-38
-18.42492294 -5.892584801 -5.476220608 2.15813416e-38
-18.38727379 -5.962129593 -5.472111225 2.15813416e-38
-18.30447197 -6.180207729 -5.469252586 2.15813416e-38
-18.30446625 -6.26228714 -5.476727962 2.15813416e-38
-18.27485847 -6.334332466 -5.47544384 2.15813416e-38
-18.20271683 -6.473722458 -5.469248772 2.15813416e-38
-18.17834663 -6.630168438 -5.47776556 2.15813416e-38
-18.12644196 -6.776844025 -5.478365898 2.15813416e-38
-18.07490921 -6.840519905 -5.471057415 2.15813416e-38
-18.07376671 -6.923273087 -5.479093075 2.15813416e-38
-17.99928856 -7.14482975 -5.482236862 2.15813416e-38
-17.88289642 -7.349484444 -5.473384857 2.15813416e-38
-17.86485672 -7.426165104 -5.476959229 2.15813416e-38
-17.8103466 -7.487614632 -5.469430447 2.15813416e-38
-17.8161068 -7.574448586 -5.480510712 2.15813416e-38
-17.75991631 -7.63500309 -5.472616673 2.15813416e-38
-17.74277878 -7.712296009 -5.476845741 2.15813416e-38
-17.61384201 -7.99538517 -5.476026058 2.15813416e-38
-17.54760361 -8.136096954 -5.475592136 2.15813416e-38
-17.51416397 -8.206288338 -5.475408077 2.15813416e-38
-17.35110474 -8.472759247 -5.466319561 2.15813416e-38
-17.3512516 -8.559389114 -5.477164268 2.15813416e-38
-17.21247864 -8.837835312 -5.477513313 2.15813416e-38
-17.12978363 -8.970140457 -5.473971844 2.15813416e-38
-17.10069847 -9.130835533 -5.487957478 2.15813416e-38
-17.01932526 -9.175503731 -5.473638058 2.15813416e-38
-17.00994301 -9.258891106 -5.482547283 2.15813416e-38
-16.97106934 -9.32636261 -5.482056141 2.15813416e-38
-16.9089489 -9.380921364 -5.474128246 2.15813416e-38
-16.85346603 -9.438946724 -5.468407154 2.15813416e-38
-16.83869934 -9.51980114 -5.475988865 2.15813416e-38
-16.78092384 -9.576358795 -5.46967411 2.15813416e-38
-16.74214935 -9.643658638 -5.469628811 2.15813416e-38
-16.7365551 -9.730249405 -5.480540752 2.15813416e-38
-16.58593178 -9.912216187 -5.46996069 2.15813416e-38
-16.57512283 -9.996408463 -5.479606152 2.15813416e-38
-16.51409149 -10.05035019 -5.472741127 2.15813416e-38
-16.45465088 -10.19636536 -5.48003912 2.15813416e-38
-16.40966797 -10.26001263 -5.478743553 2.15813416e-38
-16.35390282 -10.31682968 -5.473931313 2.15813416e-38
-16.31509018 -10.38426208 -5.47486639 2.15813416e-38
-16.26986122 -10.4476099 -5.473737717 2.15813416e-38
-16.19318581 -10.58321381 -5.476392269 2.15813416e-38
-16.13866806 -10.64040756 -5.47237587 2.15813416e-38
-16.07483482 -10.78473186 -5.479956627 2.15813416e-38
-16.02961159 -10.84808826 -5.479361057 2.15813416e-38
-15.91972637 -10.96135902 -5.471746922 2.15813416e-38
-15.83605289 -10.9978466 -5.458137989 2.15813416e-38
-15.75153732 -11.12795639 -5.459681988 2.15813416e-38
-15.69391155 -11.18206692 -5.455235481 2.15813416e-38
-15.65319443 -11.24819756 -5.456755161 2.15813416e-38
-15.65102482 -11.34231567 -5.471845627 2.15813416e-38
-15.59739113 -11.39933205 -5.469059944 2.15813416e-38
-15.5227356 -11.44081306 -5.458984375 2.15813416e-38
-15.49613285 -11.51763058 -5.465865135 2.15813416e-38
-15.4402113 -11.57270145 -5.462502956 2.15813416e-38
-15.37061977 -11.61739349 -5.454385281 2.15813416e-38
-15.36626625 -11.71140957 -5.469479561 2.15813416e-38
-15.31460094 -11.76965332 -5.467885494 2.15813416e-38
-15.19318867 -11.87186146 -5.458441734 2.15813416e-38
-15.05323792 -12.05767632 -5.460008144 2.15813416e-38
-14.98317623 -12.10075378 -5.452195168 2.15813416e-38
-14.7981205 -12.34967136 -5.456418991 2.15813416e-38
-14.65007496 -12.52890778 -5.457149029 2.15813416e-38
-14.5848341 -12.5749855 -5.451635838 2.15813416e-38
-14.5032444 -12.70934772 -5.459157944 2.15813416e-38
-14.37843132 -12.80578995 -5.450752735 2.15813416e-38
-14.23405266 -12.98839569 -5.455008507 2.15813416e-38
-14.17999744 -13.04392338 -5.45434618 2.15813416e-38
-14.11918449 -13.0931654 -5.451157093 2.15813416e-38
-14.02030373 -13.21269512 -5.453815937 2.15813416e-38
-13.94720173 -13.25006676 -5.446053505 2.15813416e-38
-13.90882969 -13.32039642 -5.451936245 2.15813416e-38
-13.8394928 -13.36106396 -5.445766926 2.15813416e-38
-13.7011404 -13.55050564 -5.455235481 2.15813416e-38
-13.63713932 -13.59609032 -5.451470852 2.15813416e-38
-13.5770998 -13.645504 -5.449356556 2.15813416e-38
-13.52572632 -13.70361519 -5.450802803 2.15813416e-38
-13.43016148 -13.82741642 -5.45691967 2.15813416e-38
-13.30766296 -13.92353439 -5.452450752 2.15813416e-38
-13.24481869 -13.96977139 -5.449665546 2.15813416e-38
-13.13249397 -14.07626057 -5.449839115 2.15813416e-38
-13.00586128 -14.16722298 -5.444401264 2.15813416e-38
-12.94151688 -14.21131992 -5.441305161 2.15813416e-38
-12.8743763 -14.25226307 -5.437124729 2.15813416e-38
-12.81937313 -14.30659103 -5.438148499 2.15813416e-38
-12.79094315 -14.39084721 -5.450585842 2.15813416e-38
-12.7055006 -14.41099167 -5.438825607 2.15813416e-38
-12.54076004 -14.57473183 -5.443143845 2.15813416e-38
-12.41957855 -14.67084694 -5.441568851 2.15813416e-38
-12.35611153 -14.71541882 -5.4396348 2.15813416e-38
-12.26456833 -14.84718418 -5.451717854 2.15813416e-38
-12.07274151 -14.97926617 -5.446352482 2.15813416e-38
-11.96420479 -15.09135056 -5.451952457 2.15813416e-38
-11.88693047 -15.11832047 -5.444389343 2.15813416e-38
-11.8240242 -15.16335869 -5.443448544 2.15813416e-38
-11.76282597 -15.21057224 -5.443378925 2.15813416e-38
-11.69111538 -15.24409103 -5.438510895 2.15813416e-38
-11.56857395 -15.33812046 -5.438698292 2.15813416e-38
-11.46221066 -15.45398808 -5.446929455 2.15813416e-38
-11.32505512 -15.52846336 -5.440909863 2.15813416e-38
-11.20714951 -15.629179 -5.444452763 2.15813416e-38
-11.11137009 -15.62789631 -5.428401947 2.15813416e-38
-11.07849121 -15.71503639 -5.44315815 2.15813416e-38
-10.840909 -15.91540623 -5.451471329 2.15813416e-38
-10.76230717 -15.9373312 -5.444118977 2.15813416e-38
-10.6832552 -15.95821381 -5.436538219 2.15813416e-38
-10.62411594 -16.00871468 -5.439147472 2.15813416e-38
-10.56451321 -16.05882263 -5.441713333 2.15813416e-38
-10.43234921 -16.13891792 -5.440246582 2.15813416e-38
-10.30196095 -16.22172928 -5.440064907 2.15813416e-38
-10.18708515 -16.32950592 -5.448561192 2.15813416e-38
-10.06066704 -16.4193573 -5.451375008 2.15813416e-38
-9.930355072 -16.50307083 -5.452484608 2.15813416e-38
-9.835886002 -16.49582863 -5.436983109 2.15813416e-38
-9.778475761 -16.5504303 -5.441981316 2.15813416e-38
-9.731956482 -16.6239357 -5.453246593 2.15813416e-38
-9.652692795 -16.64161301 -5.446267605 2.15813416e-38
-9.589964867 -16.68767929 -5.448682785 2.15813416e-38
-9.525424957 -16.73071671 -5.450187683 2.15813416e-38
-9.445252419 -16.74610901 -5.442787647 2.15813416e-38
-9.374516487 -16.77794647 -5.44084549 2.15813416e-38
-9.311632156 -16.82387924 -5.443557262 2.15813416e-38
-9.109176636 -16.9370079 -5.444217682 2.15813416e-38
-9.055574417 -17.0008316 -5.452987194 2.15813416e-38
-8.976923943 -17.01769257 -5.446778297 2.15813416e-38
-8.905287743 -17.04763794 -5.444862843 2.15813416e-38
-8.818056107 -17.04725456 -5.433369637 2.15813416e-38
-8.632608414 -17.19373894 -5.446478844 2.15813416e-38
-8.554515839 -17.21038246 -5.440813541 2.15813416e-38
-8.499178886 -17.27293396 -5.449743271 2.15813416e-38
-8.273672104 -17.3394165 -5.438839436 2.15813416e-38
-8.218789101 -17.40406609 -5.448716164 2.15813416e-38
-8.13932991 -17.41677666 -5.442403793 2.15813416e-38
-8.064944267 -17.4400425 -5.439499855 2.15813416e-38
-7.78579855 -17.57269096 -5.44111824 2.15813416e-38
-7.436773777 -17.73931503 -5.445319653 2.15813416e-38
-7.291672707 -17.79303932 -5.443640232 2.15813416e-38
-7.220993519 -17.82447243 -5.444330692 2.15813416e-38
-7.148202419 -17.85064316 -5.443503857 2.15813416e-38
-6.786633015 -17.98712921 -5.442420959 2.15813416e-38
-6.710668564 -18.00457764 -5.439495087 2.15813416e-38
-6.640218735 -18.03679276 -5.441120148 2.15813416e-38
-6.421236992 -18.11279488 -5.440294266 2.15813416e-38
-6.286837578 -18.19684792 -5.450176716 2.15813416e-38
-6.133954048 -18.22784615 -5.444514275 2.15813416e-38
-6.057839394 -18.2439537 -5.442007542 2.15813416e-38
-5.984815598 -18.26927185 -5.44233942 2.15813416e-38
-5.76064539 -18.3292675 -5.439119339 2.15813416e-38
-5.693027973 -18.3719883 -5.444961548 2.15813416e-38
-5.535943031 -18.38661385 -5.435929775 2.15813416e-38
-5.472271442 -18.44339561 -5.446168423 2.15813416e-38
-5.31926012 -18.4709816 -5.441510201 2.15813416e-38
-5.096078873 -18.53364182 -5.441468239 2.15813416e-38
-4.948120594 -18.57859612 -5.442809582 2.15813416e-38
-4.87125349 -18.59011459 -5.440403461 2.15813416e-38
-4.794481754 -18.60180855 -5.438140869 2.15813416e-38
-4.574716091 -18.67832565 -5.443984985 2.15813416e-38
-4.493472099 -18.67117691 -5.436592579 2.15813416e-38
-4.424697399 -18.71580505 -5.444369316 2.15813416e-38
-4.273208141 -18.74691772 -5.443243504 2.15813416e-38
-4.201800346 -18.7817955 -5.448422432 2.15813416e-38
-4.125760555 -18.7962265 -5.447758675 2.15813416e-38
-3.964517832 -18.78144836 -5.434057236 2.15813416e-38
-3.891652584 -18.81010818 -5.437777996 2.15813416e-38
-3.815709829 -18.82411957 -5.43735075 2.15813416e-38
-3.744988441 -18.86441612 -5.444596767 2.15813416e-38
-3.662858486 -18.84715652 -5.435321808 2.15813416e-38
-3.592928886 -18.89256477 -5.444208145 2.15813416e-38
-3.517982483 -18.91234207 -5.445787907 2.15813416e-38
-3.361652136 -18.9166317 -5.439069748 2.15813416e-38
-3.216359377 -18.98371696 -5.450742722 2.15813416e-38
-3.045211792 -18.42299652 -5.286185741 2.167317709e-38
-2.968114138 -18.41633987 -5.280810356 2.167317709e-38
-2.821306705 -18.44850349 -5.283358574 2.167317709e-38
-2.757055521 -18.52640152 -5.302450657 2.167317709e-38
-2.603720427 -18.51749611 -5.293737888 2.167317709e-38
-2.528150082 -18.51957321 -5.291384697 2.167317709e-38
-2.452438593 -18.52022934 -5.288711071 2.167317709e-38
-2.376369476 -18.51745987 -5.285150051 2.167317709e-38
-2.305943251 -18.55930519 -5.294404984 2.167317709e-38
-2.230949163 -18.56536865 -5.293532848 2.167317709e-38
-2.081703424 -18.58350945 -5.293762207 2.167317709e-38
-2.005377054 -18.57698441 -5.289563656 2.167317709e-38
-1.934031963 -18.61709595 -5.298727989 2.167317709e-38
-1.859818459 -18.63108444 -5.30053854 2.167317709e-38
-1.627656817 -18.56838799 -5.276733398 2.167317709e-38
-1.555896997 -18.60940552 -5.286570072 2.167317709e-38
-1.4828372 -18.63786316 -5.292917728 2.167317709e-38
-1.258185148 -18.65757179 -5.293819904 2.167317709e-38
-0.9579661489 -18.67401505 -5.293430328 2.167317709e-38
-0.8824295402 -18.66798401 -5.290673256 2.167317709e-38
-0.8067212701 -18.65643883 -5.286438942 2.167317709e-38
-0.7326238751 -18.68260002 -5.292974472 2.167317709e-38
-0.6585301161 -18.71425629 -5.301149368 2.167317709e-38
-0.4122380614 -13.22813702 -3.746607542 2.213235457e-38
-0.3030582666 -13.10929203 -3.712136984 2.213235457e-38
-0.2503040135 -13.10749626 -3.711313725 2.213235457e-38
-0.1979266107 -13.12946224 -3.717278242 2.213235457e-38
-0.1456385702 -13.17483044 -3.729926109 2.213235457e-38
-0.05631238967 -18.68226433 -5.288837433 2.167317709e-38
0.09381755441 -18.67226791 -5.28605175 2.167317709e-38
0.1689427048 -18.67894173 -5.288094521 2.167317709e-38
0.2439642847 -18.67297363 -5.286635399 2.167317709e-38
0.3944545984 -18.68787193 -5.291579723 2.167317709e-38
0.5448690057 -18.69031906 -5.293343544 2.167317709e-38
0.6199170947 -18.68566704 -5.292692661 2.167317709e-38
0.69473207 -18.67471123 -5.290332794 2.167317709e-38
0.8449243903 -18.67035103 -5.290850639 2.167317709e-38
0.9200027585 -18.66737938 -5.291014194 2.167317709e-38
0.9957745671 -18.67739296 -5.294944286 2.167317709e-38
1.218854547 -18.63210106 -5.285888195 2.167317709e-38
1.293288827 -18.62043762 -5.284011841 2.167317709e-38
1.368810177 -18.62428665 -5.286622047 2.167317709e-38
1.52001071 -18.6312027 -5.291882992 2.167317709e-38
1.746210933 -18.6288662 -5.296815395 2.167317709e-38
1.820339918 -18.6140995 -5.294656754 2.167317709e-38
1.894461751 -18.59988976 -5.292737007 2.167317709e-38
1.966149926 -18.56316566 -5.28449297 2.167317709e-38
2.043531418 -18.58033371 -5.291677475 2.167317709e-38
2.117046595 -18.56178474 -5.288774967 2.167317709e-38
2.196191072 -18.59163857 -5.29975462 2.167317709e-38
2.271936178 -18.59094429 -5.302116871 2.167317709e-38
2.345775127 -18.5747261 -5.300138474 2.167317709e-38
2.417084455 -18.53950119 -5.292821884 2.167317709e-38
2.492756128 -18.53839874 -5.29531908 2.167317709e-38
2.568846226 -18.53959656 -5.298569202 2.167317709e-38
2.788928986 -18.48532486 -5.292286873 2.167317709e-38
2.93518877 -18.44802284 -5.288191795 2.167317709e-38
2.387982845 -14.62954044 -4.19632864 2.204051908e-38
2.445984364 -14.61510277 -4.194974422 2.204051908e-38
2.619370937 -14.56959248 -4.190674305 2.204051908e-38
2.779842615 -14.45872498 -4.168125153 2.204051908e-38
3.087757349 -14.48378086 -4.192394733 2.204051908e-38
4.044438362 -18.25047874 -5.291923523 2.167317709e-38
4.123470783 -18.2593174 -5.299249172 2.167317709e-38
4.194372654 -18.23187065 -5.296135902 2.167317709e-38
4.346277714 -18.22043991 -5.30279541 2.167317709e-38
4.555819035 -18.12736702 -5.291313171 2.167317709e-38
4.779114723 -18.09013367 -5.296883583 2.167317709e-38
4.923284054 -18.04703522 -5.295688152 2.167317709e-38
4.993823051 -18.01998901 -5.293594837 2.167317709e-38
5.056868553 -17.96653557 -5.283820629 2.167317709e-38
5.147826195 -18.01175499 -5.303162575 2.167317709e-38
5.21034193 -17.95697021 -5.293157101 2.167317709e-38
5.289024353 -17.9580822 -5.299708843 2.167317709e-38
5.37153101 -17.97133064 -5.309948921 2.167317709e-38
5.425585747 -17.8897686 -5.292252541 2.167317709e-38
5.501939297 -17.88235092 -5.296557426 2.167317709e-38
5.65684557 -17.87329292 -5.307173729 2.167317709e-38
5.795253754 -17.81154251 -5.302503109 2.167317709e-38
5.858998299 -17.76443291 -5.29544735 2.167317709e-38
5.944911003 -17.78424263 -5.308432579 2.167317709e-38
6.006873608 -17.73224831 -5.300077915 2.167317709e-38
6.219292164 -17.65571213 -5.299234867 2.167317709e-38
6.304365635 -17.67023087 -5.311155319 2.167317709e-38
6.361533642 -17.60655022 -5.299658775 2.167317709e-38
6.428645611 -17.57095146 -5.296681404 2.167317709e-38
6.500836849 -17.54931831 -5.297994137 2.167317709e-38
6.705772877 -17.45343208 -5.293077946 2.167317709e-38
6.85474205 -17.42147827 -5.299929619 2.167317709e-38
6.995139122 -17.36719704 -5.300354481 2.167317709e-38
7.080916882 -17.37823677 -5.312367916 2.167317709e-38
7.125400066 -17.28819275 -5.293560505 2.167317709e-38
7.19227457 -17.25328064 -5.29167366 2.167317709e-38
7.340188026 -17.21701622 -5.298480988 2.167317709e-38
7.42291832 -17.21885872 -5.308188915 2.167317709e-38
7.477211475 -17.15477943 -5.297657013 2.167317709e-38
7.550238609 -17.13394356 -5.300553799 2.167317709e-38
7.621699333 -17.10940361 -5.302396774 2.167317709e-38
7.694042206 -17.08667183 -5.304894924 2.167317709e-38
7.820943356 -17.00204659 -5.297972679 2.167317709e-38
7.895909309 -16.98482513 -5.302454948 2.167317709e-38
7.963718414 -16.95208549 -5.302184582 2.167317709e-38
8.096161842 -16.88002014 -5.299834251 2.167317709e-38
8.158268929 -16.83561134 -5.296143532 2.167317709e-38
8.232216835 -16.81561089 -5.300220966 2.167317709e-38
8.375598907 -16.76581192 -5.305578709 2.167317709e-38
8.425092697 -16.69664383 -5.29436636 2.167317709e-38
8.50053215 -16.67910194 -5.299594879 2.167317709e-38
8.572535515 -16.65455627 -5.302702427 2.167317709e-38
8.653662682 -16.64736748 -5.311448574 2.167317709e-38
8.706291199 -16.58535576 -5.30278635 2.167317709e-38
8.761174202 -16.52812195 -5.295705318 2.167317709e-38
8.820597649 -16.4797802 -5.291534901 2.167317709e-38
8.899468422 -16.46766663 -5.299090385 2.167317709e-38
9.037875175 -16.40701103 -5.302784443 2.167317709e-38
8.196803093 -14.73965168 -4.774499893 2.185684809e-38
8.208699226 -14.62233067 -4.747148991 2.185684809e-38
8.295357704 -14.36799717 -4.696716785 2.185684809e-38
8.354696274 -14.33734894 -4.697639465 2.185684809e-38
8.442107201 -14.22322941 -4.682341099 2.185684809e-38
8.476089478 -14.15057945 -4.66960001 2.185684809e-38
8.709056854 -14.14957047 -4.703588009 2.185684809e-38
8.949287415 -14.15458202 -4.740783691 2.185684809e-38
10.20336151 -15.71524048 -5.304325581 2.167317709e-38
10.26730347 -15.67540646 -5.304767609 2.167317709e-38
10.32519531 -15.62637043 -5.302178383 2.167317709e-38
10.45338058 -15.5471344 -5.303639412 2.167317709e-38
10.52904224 -15.52452564 -5.310321331 2.167317709e-38
10.63117123 -15.40699577 -5.299189568 2.167317709e-38
10.70005512 -15.37430096 -5.302691936 2.167317709e-38
10.73744011 -15.29649162 -5.290700436 2.167317709e-38
10.81598568 -15.27737617 -5.299082279 2.167317709e-38
10.88297462 -15.24168015 -5.301833153 2.167317709e-38
11.13403988 -15.07476044 -5.305366516 2.167317709e-38
11.18334579 -15.01484966 -5.300058365 2.167317709e-38
11.23668003 -14.96049595 -5.296774387 2.167317709e-38
11.35646629 -14.86867428 -5.296424866 2.167317709e-38
11.6216917 -14.71997261 -5.309336662 2.167317709e-38
11.66675472 -14.65552616 -5.302966118 2.167317709e-38
11.73617744 -14.62172604 -5.307764053 2.167317709e-38
11.79714108 -14.57724857 -5.30878973 2.167317709e-38
11.88803196 -14.56939507 -5.323291302 2.167317709e-38
11.9231739 -14.49313164 -5.312894344 2.167317709e-38
12.03464127 -14.50932598 -5.336526871 2.167317709e-38
12.06633091 -14.4291048 -5.324817657 2.167317709e-38
12.25550747 -14.30125046 -5.331795692 2.167317709e-38
12.2886219 -14.22378635 -5.321286678 2.167317709e-38
12.36664772 -14.19830608 -5.330310822 2.167317709e-38
12.44431305 -14.17203236 -5.339186192 2.167317709e-38
12.48712444 -14.10600948 -5.333180428 2.167317709e-38
12.55437374 -14.06763458 -5.33770752 2.167317709e-38
12.61711788 -14.0240736 -5.340381622 2.167317709e-38
12.67952251 -13.97999668 -5.342964649 2.167317709e-38
12.72678185 -13.91924191 -5.339254856 2.167317709e-38
12.86744785 -13.84786415 -5.35138607 2.167317709e-38
12.90294075 -13.77459145 -5.343073368 2.167317709e-38
13.06526756 -13.61502743 -5.341909885 2.167317709e-38
13.13757706 -13.58065224 -5.349104881 2.167317709e-38
13.24831772 -13.4766283 -5.349910259 2.167317709e-38
13.27110767 -13.39172173 -5.337337017 2.167317709e-38
13.32657528 -13.33998108 -5.33802557 2.167317709e-38
13.37819958 -13.2844162 -5.33727026 2.167317709e-38
13.43229485 -13.23134041 -5.33759594 2.167317709e-38
13.6109066 -13.08762264 -5.345453739 2.167317709e-38
13.72097206 -12.98278141 -5.347516537 2.167317709e-38
13.80594921 -12.95839214 -5.360283375 2.167317709e-38
13.86698246 -12.80751324 -5.343822002 2.167317709e-38
13.97481823 -12.70036888 -5.345825195 2.167317709e-38
14.04324341 -12.65994453 -5.352526665 2.167317709e-38
14.06909943 -12.58111382 -5.343063831 2.167317709e-38
14.12214851 -12.5267458 -5.344041348 2.167317709e-38
14.19337368 -12.48833275 -5.351952553 2.167317709e-38
14.42739105 -12.18862152 -5.346724033 2.167317709e-38
14.53074646 -12.0770731 -5.34886694 2.167317709e-38
14.63942909 -11.96971226 -5.353274822 2.167317709e-38
14.66146469 -11.8897028 -5.343811035 2.167317709e-38
14.72177315 -11.84083176 -5.348398685 2.167317709e-38
14.77007866 -11.78220654 -5.348696232 2.167317709e-38
14.84792042 -11.65019512 -5.34279108 2.167317709e-38
14.90235615 -11.59642982 -5.345562458 2.167317709e-38
14.96032333 -11.54528809 -5.349666119 2.167317709e-38
15.02401066 -11.49836349 -5.355870724 2.167317709e-38
15.04646683 -11.4199295 -5.347463608 2.167317709e-38
15.09465504 -11.361166 -5.348317146 2.167317709e-38
15.16820335 -11.22663021 -5.342220783 2.167317709e-38
15.23685932 -11.18292141 -5.350524902 2.167317709e-38
15.25533485 -11.10239887 -5.341296196 2.167317709e-38
15.33946133 -11.06957817 -5.35513401 2.167317709e-38
15.32204342 -10.96361351 -5.333619118 2.167317709e-38
15.40449142 -10.92924976 -5.346982956 2.167317709e-38
15.47883034 -10.79595089 -5.342483997 2.167317709e-38
15.50812244 -10.72397041 -5.337676525 2.167317709e-38
15.61880493 -10.61591816 -5.346218109 2.167317709e-38
15.67219639 -10.56035328 -5.349919796 2.167317709e-38
15.72811794 -10.41516113 -5.340256691 2.167317709e-38
15.81029415 -10.37838459 -5.353943348 2.167317709e-38
15.83973217 -10.30683041 -5.349838257 2.167317709e-38
15.96259022 -10.11488247 -5.349742889 2.167317709e-38
16.0118866 -10.05614471 -5.352674007 2.167317709e-38
16.07362556 -9.915608406 -5.346486568 2.167317709e-38
16.15022278 -9.873456955 -5.358720303 2.167317709e-38
16.17014885 -9.796550751 -5.352221012 2.167317709e-38
16.20888138 -9.731160164 -5.352049828 2.167317709e-38
16.35997391 -9.732618332 -5.388982296 2.167317709e-38
16.47108269 -9.709281921 -5.412681103 2.167317709e-38
16.60157967 -9.696486473 -5.442706108 2.15813416e-38
16.75132751 -9.693967819 -5.479046822 2.15813416e-38
16.80989075 -9.637854576 -5.485479355 2.15813416e-38
16.9291954 -9.526117325 -5.499182224 2.15813416e-38
16.94363594 -9.444766045 -5.491496563 2.15813416e-38
17.0139122 -9.39449501 -5.50198555 2.15813416e-38
17.07519341 -9.250053406 -5.497617722 2.15813416e-38
17.10799599 -9.178982735 -5.496208668 2.15813416e-38
17.14732552 -9.111495972 -5.497027874 2.15813416e-38
17.22255898 -9.062879562 -5.509421825 2.15813416e-38
17.22583008 -8.976356506 -5.49887991 2.15813416e-38
17.2748642 -8.913798332 -5.503051758 2.15813416e-38
17.29393578 -8.835783958 -5.497766018 2.15813416e-38
17.36381149 -8.696335793 -5.497684956 2.15813416e-38
17.40884781 -8.631354332 -5.500810146 2.15813416e-38
17.44063759 -8.559958458 -5.49994421 2.15813416e-38
17.47963333 -8.492066383 -5.50142622 2.15813416e-38
17.53326225 -8.431175232 -5.507590771 2.15813416e-38
17.59596252 -8.287806511 -5.506176472 2.15813416e-38
17.61379433 -8.20985508 -5.501383305 2.15813416e-38
17.67338753 -8.065315247 -5.499568462 2.15813416e-38
17.73360443 -8.006816864 -5.508243084 2.15813416e-38
17.80509377 -7.781974316 -5.500895023 2.15813416e-38
17.8864994 -7.646883965 -5.506875038 2.15813416e-38
17.89292336 -7.564723969 -5.499464035 2.15813416e-38
18.09873962 -7.058286667 -5.49946022 2.15813416e-38
18.14488411 -6.992383957 -5.504897118 2.15813416e-38
18.19868279 -6.762200356 -5.496076584 2.15813416e-38
18.24922752 -6.697614193 -5.503168583 2.15813416e-38
18.27991867 -6.625619888 -5.504342556 2.15813416e-38
18.31353188 -6.554639339 -5.5064888 2.15813416e-38
18.32161331 -6.474555492 -5.50104475 2.15813416e-38
18.36392975 -6.323903561 -5.498308182 2.15813416e-38
18.40944862 -6.256914139 -5.504364014 2.15813416e-38
18.44713593 -6.022549152 -5.4935112 2.15813416e-38
18.50959587 -5.878688812 -5.4978652 2.15813416e-38
18.52325439 -5.801160812 -5.494945526 2.15813416e-38
18.55015945 -5.727815151 -5.496054649 2.15813416e-38
18.59474754 -5.659804821 -5.50248003 2.15813416e-38
18.64787674 -5.594159603 -5.511500835 2.15813416e-38
18.65548515 -5.51480484 -5.507155895 2.15813416e-38
18.70171165 -5.365351677 -5.507887363 2.15813416e-38
18.73104858 -5.211147785 -5.504010201 2.15813416e-38
18.74373055 -5.133574963 -5.5016222 2.15813416e-38
18.83480644 -4.915145874 -5.510564804 2.15813416e-38
18.80059624 -4.825581074 -5.494833946 2.15813416e-38
18.82291985 -4.750743866 -5.495738506 2.15813416e-38
18.91000175 -4.530862808 -5.504805088 2.15813416e-38
18.92742348 -4.374426365 -5.499457359 2.15813416e-38
18.9454155 -4.218422413 -5.494654179 2.15813416e-38
18.96066856 -4.062110424 -5.489429951 2.15813416e-38
19.01849174 -3.994597197 -5.501474857 2.15813416e-38
19.03985786 -3.919237375 -5.503057003 2.15813416e-38
19.06841278 -3.845282793 -5.506795883 2.15813416e-38
19.08124161 -3.7681036 -5.506087303 2.15813416e-38
19.09204102 -3.69056344 -5.504879951 2.15813416e-38
19.07979774 -3.608685255 -5.497119904 2.15813416e-38
19.11259842 -3.535373926 -5.502426624 2.15813416e-38
19.14777184 -3.462331772 -5.508507729 2.15813416e-38
19.16560555 -3.306651592 -5.505813122 2.15813416e-38
19.13984299 -3.223032713 -5.494645596 2.15813416e-38
19.14975929 -3.145591497 -5.493816853 2.15813416e-38
19.19136238 -3.073244572 -5.502154827 2.15813416e-38
19.25614929 -2.608996391 -5.501085758 2.15813416e-38
19.25759125 -2.530402899 -5.498548031 2.15813416e-38
19.29022408 -2.298398972 -5.49955225 2.15813416e-38
19.29157829 -2.219944954 -5.497348309 2.15813416e-38
19.31910324 -2.144456625 -5.502690315 2.15813416e-38
19.31518364 -2.065452814 -5.499164104 2.15813416e-38
19.30566025 -1.985968351 -5.49413681 2.15813416e-38
19.38892746 -1.601463675 -5.507559299 2.15813416e-38
19.38023376 -1.522325516 -5.503301144 2.15813416e-38
19.3891449 -1.366272926 -5.502539635 2.15813416e-38
19.37666321 -1.20891726 -5.496060848 2.15813416e-38
19.41060257 -1.132724762 -5.504351139 2.15813416e-38
19.44691849 -1.056414723 -5.513398647 2.15813416e-38
19.38107872 -0.8966254592 -5.492513657 2.15813416e-38
19.43641281 -0.7426334023 -5.506330967 2.15813416e-38
19.41577721 -0.6636987925 -5.49968338 2.15813416e-38
19.43473625 -0.5079519153 -5.503704548 2.15813416e-38
19.43551445 -0.4298029244 -5.503389835 2.15813416e-38
19.40841675 -0.03900358081 -5.494419575 2.15813416e-38
19.43087578 0.03904679045 -5.50075388 2.15813416e-38
19.42078018 0.1170993671 -5.497979164 2.15813416e-38
19.45178032 0.1954909116 -5.506938934 2.15813416e-38
19.44133186 0.2735514343 -5.504248142 2.15813416e-38
19.45606804 0.3519841731 -5.508767605 2.15813416e-38
19.43019295 0.4296688139 -5.501896381 2.15813416e-38
19.41195869 0.5854398012 -5.497885227 2.15813416e-38
19.396698 0.6630612016 -5.494288921 2.15813416e-38
19.39319801 0.8190636039 -5.494967937 2.15813416e-38
19.40649223 0.8977919221 -5.49971962 2.15813416e-38
19.37574577 0.9744412303 -5.492067337 2.15813416e-38
19.39960289 1.053840518 -5.499985695 2.15813416e-38
19.37838554 1.209011555 -5.496549606 2.15813416e-38
19.36392975 1.442738414 -5.49698782 2.15813416e-38
19.34708405 1.51970911 -5.493892193 2.15813416e-38
19.36242676 1.677654982 -5.501902103 2.15813416e-38
19.33030891 1.831560373 -5.496779442 2.15813416e-38
19.33000565 1.90997076 -5.498837471 2.15813416e-38
19.28394508 1.983728886 -5.48795557 2.15813416e-38
19.35082817 2.069256544 -5.50931406 2.15813416e-38
19.32679176 2.223986626 -5.507381439 2.15813416e-38
19.25190163 2.529646158 -5.496922493 2.15813416e-38
19.22888947 2.605291843 -5.493293762 2.15813416e-38
19.2275753 2.683871984 -5.495958805 2.15813416e-38
19.25629425 2.766844511 -5.507305622 2.15813416e-38
19.20674896 2.838576555 -5.496353149 2.15813416e-38
19.19335747 2.915485859 -5.495829105 2.15813416e-38
19.21024323 3.076260328 -5.507569313 2.15813416e-38
19.14326096 3.14451313 -5.491948128 2.15813416e-38
19.20445251 3.233904123 -5.513193607 2.15813416e-38
19.14434242 3.302978992 -5.499699116 2.15813416e-38
19.09932327 3.374329329 -5.490617275 2.15813416e-38
19.10233307 3.612943411 -5.503612518 2.15813416e-38
19.1163044 3.69524312 -5.511873245 2.15813416e-38
19.02659607 3.757300138 -5.490313053 2.15813416e-38
19.04995155 3.921305418 -5.505971432 2.15813416e-38
19.01308441 3.993453979 -5.499916077 2.15813416e-38
19.00782013 4.072194099 -5.503079414 2.15813416e-38
18.88811493 4.445397377 -5.49318552 2.15813416e-38
18.92133904 4.533569813 -5.508103848 2.15813416e-38
18.86140251 4.59945631 -5.495992184 2.15813416e-38
18.83679962 4.754231453 -5.4997859 2.15813416e-38
18.82469559 4.831749439 -5.501873493 2.15813416e-38
18.7724247 4.898851871 -5.492306709 2.15813416e-38
18.73504257 4.96962595 -5.487171173 2.15813416e-38
18.75073624 5.054552078 -5.497674942 2.15813416e-38
18.74990082 5.135271549 -5.503437996 2.15813416e-38
18.69859123 5.202110291 -5.494470596 2.15813416e-38
18.6987648 5.364494324 -5.507022381 2.15813416e-38
18.63991928 5.428812504 -5.496070385 2.15813416e-38
18.6196003 5.504186153 -5.496565342 2.15813416e-38
18.56106567 5.731126308 -5.499242306 2.15813416e-38
18.52784348 5.802564621 -5.49628067 2.15813416e-38
18.53232002 5.885905743 -5.504606724 2.15813416e-38
18.4609375 6.02704525 -5.497622967 2.15813416e-38
18.41384315 6.175932884 -5.498208046 2.15813416e-38
17.86707687 6.233028889 -5.356817722 2.167317709e-38
17.79577637 6.288731575 -5.343163967 2.167317709e-38
17.74211311 6.511493683 -5.350241184 2.167317709e-38
17.72215462 6.585137367 -5.35216713 2.167317709e-38
17.63982582 6.71642065 -5.343433857 2.167317709e-38
17.60674477 6.784989834 -5.341629028 2.167317709e-38
17.60944748 6.867463589 -5.350787163 2.167317709e-38
17.52815437 6.998631477 -5.343009472 2.167317709e-38
17.513237 7.074422359 -5.347085953 2.167317709e-38
17.44975662 7.212513924 -5.345238209 2.167317709e-38
17.38459396 7.432291031 -5.352344036 2.167317709e-38
17.34434509 7.497699738 -5.349194527 2.167317709e-38
17.31635284 7.568356037 -5.349897385 2.167317709e-38
17.30668449 7.647138596 -5.356366634 2.167317709e-38
17.22193336 7.775774956 -5.349308014 2.167317709e-38
17.09984016 7.970279694 -5.340853691 2.167317709e-38
17.09207153 8.050463676 -5.348494053 2.167317709e-38
17.06921005 8.123695374 -5.351519108 2.167317709e-38
16.979002 8.248832703 -5.343853951 2.167317709e-38
16.95019531 8.403942108 -5.355880737 2.167317709e-38
16.90503693 8.46639061 -5.352322578 2.167317709e-38
16.79394531 8.665642738 -5.349852562 2.167317709e-38
16.7516098 8.729241371 -5.347501278 2.167317709e-38
16.70345497 8.789711952 -5.343366623 2.167317709e-38
16.64794731 8.932141304 -5.348413944 2.167317709e-38
16.55158043 9.052562714 -5.340657711 2.167317709e-38
16.56198311 9.144935608 -5.355833054 2.167317709e-38
16.49929619 9.19707489 -5.347477913 2.167317709e-38
16.42885017 9.331715584 -5.348789692 2.167317709e-38
16.37146568 9.386361122 -5.342346668 2.167317709e-38
16.3091507 9.525673866 -5.346832275 2.167317709e-38
16.27833366 9.595643044 -5.349332333 2.167317709e-38
16.20999527 9.73182106 -5.352421284 2.167317709e-38
16.17943001 9.802164078 -5.355297089 2.167317709e-38
16.11365509 9.851083755 -5.346585751 2.167317709e-38
16.04771805 9.899608612 -5.337867737 2.167317709e-38
16.03469849 9.980797768 -5.346844673 2.167317709e-38
16.01147842 10.05587673 -5.352537632 2.167317709e-38
15.94441509 10.10335445 -5.343650341 2.167317709e-38
15.86291027 10.23137856 -5.343731403 2.167317709e-38
15.81367779 10.28987312 -5.341038704 2.167317709e-38
15.80063915 10.37203503 -5.350678444 2.167317709e-38
15.35747528 10.43829441 -5.256762505 2.167317709e-38
15.21879959 10.43371582 -5.223613739 2.167317709e-38
14.91641998 10.40369511 -5.148366928 2.167317709e-38
14.81238174 10.41988754 -5.126874924 2.176501259e-38
14.54859447 10.41018105 -5.064378738 2.176501259e-38
14.45850945 10.43384838 -5.04758215 2.176501259e-38
14.30698872 10.41222763 -5.009253979 2.176501259e-38
14.21689606 10.43433571 -4.992356777 2.176501259e-38
14.08458614 10.4246006 -4.960569382 2.176501259e-38
13.96658134 10.42443085 -4.933730602 2.176501259e-38
13.71752644 10.41130066 -4.875161171 2.176501259e-38
13.49345589 10.41327 -4.825125694 2.185684809e-38
13.40175056 10.42872047 -4.807284832 2.185684809e-38
12.85390186 10.42386818 -4.684988499 2.185684809e-38
12.73298836 10.41093159 -4.65613699 2.185684809e-38
12.6598568 10.43633175 -4.644694805 2.185684809e-38
12.43808365 10.42258644 -4.593920231 2.185684809e-38
12.13362789 10.41910172 -4.527555466 2.194868358e-38
12.03094959 10.41525459 -4.504827499 2.194868358e-38
11.94889164 10.42854309 -4.489764214 2.194868358e-38
11.85636234 10.43204308 -4.470716953 2.194868358e-38
11.46903515 10.42317772 -4.38730526 2.194868358e-38
11.10216522 10.42058277 -4.310508728 2.194868358e-38
11.02342796 10.43035221 -4.296185017 2.194868358e-38
10.92030716 10.41630173 -4.272280693 2.194868358e-38
10.83516693 10.41859245 -4.255321503 2.204051908e-38
10.74755383 10.41781044 -4.237323284 2.204051908e-38
10.66486835 10.42114162 -4.221206188 2.204051908e-38
10.57623291 10.41797733 -4.20266819 2.204051908e-38
10.48881531 10.41527653 -4.184535503 2.204051908e-38
10.2429266 10.41944504 -4.136273861 2.204051908e-38
10.00065517 10.42146301 -4.088897705 2.204051908e-38
9.919472694 10.42039108 -4.072799683 2.204051908e-38
9.839709282 10.42015171 -4.05721426 2.204051908e-38
9.760611534 10.4199791 -4.041837215 2.204051908e-38
9.575259209 10.38825798 -3.999541759 2.204051908e-38
9.293126106 10.41328812 -3.951131105 2.213235457e-38
9.072143555 10.41584587 -3.910301208 2.213235457e-38
8.930128098 10.42079258 -3.885077715 2.213235457e-38
8.869708061 10.43489933 -3.877012014 2.213235457e-38
8.787293434 10.42256069 -3.859271288 2.213235457e-38
8.726254463 10.43498611 -3.850852966 2.213235457e-38
8.586129189 10.43681431 -3.825926542 2.213235457e-38
8.33920002 10.38955116 -3.771457434 2.213235457e-38
8.286987305 10.40994549 -3.766738176 2.213235457e-38
8.231975555 10.4265852 -3.760755062 2.213235457e-38
8.171583176 10.43609238 -3.752304077 2.213235457e-38
8.099727631 10.43042946 -3.738530397 2.213235457e-38
8.041807175 10.44222355 -3.731140852 2.213235457e-38
7.839363098 10.43734646 -3.695347071 2.222419007e-38
7.765306473 10.42575645 -3.68016243 2.222419007e-38
7.630480766 10.41854763 -3.65584445 2.222419007e-38
7.583571434 10.44229984 -3.653452873 2.222419007e-38
7.425802708 10.39990234 -3.617613792 2.222419007e-38
7.383806705 10.42949295 -3.617551327 2.222419007e-38
7.239101887 10.40142632 -3.587512493 2.222419007e-38
7.135736465 10.4307642 -3.57772851 2.222419007e-38
6.994969845 10.40351772 -3.548977137 2.222419007e-38
6.837900162 10.43963528 -3.532908201 2.222419007e-38
6.766420841 10.42166805 -3.517595291 2.222419007e-38
6.707938671 10.42309952 -3.508948565 2.222419007e-38
6.650615692 10.42588329 -3.500857353 2.222419007e-38
6.591303349 10.42510033 -3.49166894 2.222419007e-38
6.517514229 10.40072632 -3.474703312 2.222419007e-38
6.479747295 10.43344021 -3.476900816 2.222419007e-38
6.414196491 10.42113018 -3.464178324 2.222419007e-38
6.234724998 10.40865898 -3.434786797 2.222419007e-38
6.18117857 10.41399479 -3.428324461 2.222419007e-38
6.073656559 10.42287064 -3.415055752 2.231602557e-38
6.014010429 10.41656208 -3.405042887 2.231602557e-38
5.911971569 10.43263817 -3.394647837 2.231602557e-38
5.845507622 10.41270638 -3.380488157 2.231602557e-38
5.825900555 10.47623158 -3.393480062 2.231602557e-38
5.751226902 10.44054222 -3.374403715 2.231602557e-38
5.634836674 10.42674446 -3.3551929 2.231602557e-38
5.464004993 10.40882492 -3.327979803 2.231602557e-38
5.417680264 10.42216492 -3.325254917 2.231602557e-38
5.381068707 10.45423126 -3.328556776 2.231602557e-38
5.308989048 10.41688442 -3.30984354 2.231602557e-38
5.195979118 10.40100384 -3.291418076 2.231602557e-38
5.153559208 10.42066002 -3.291055202 2.231602557e-38
5.043321609 10.4075079 -3.273989677 2.231602557e-38
4.99601078 10.41636372 -3.270431519 2.231602557e-38
4.944371223 10.41588593 -3.26401329 2.231602557e-38
4.816076279 10.46968555 -3.262434721 2.231602557e-38
4.742416859 10.41969013 -3.240889311 2.231602557e-38
4.69483757 10.42611217 -3.236989975 2.231602557e-38
4.60989666 10.46134567 -3.236316442 2.231602557e-38
4.491141319 10.41802406 -3.211640835 2.231602557e-38
4.453336716 10.44565487 -3.214613199 2.231602557e-38
4.337555885 10.40516281 -3.191318035 2.231602557e-38
4.294695377 10.42010689 -3.190579653 2.231602557e-38
4.257338524 10.44849586 -3.194005489 2.231602557e-38
4.206936836 10.44474506 -3.187663317 2.231602557e-38
4.101801872 10.42481041 -3.17141223 2.231602557e-38
4.060405731 10.44260597 -3.171835184 2.231602557e-38
3.992810249 10.39224625 -3.151638746 2.231602557e-38
3.95606637 10.42156219 -3.155680418 2.231602557e-38
3.856967688 10.41205025 -3.143308163 2.231602557e-38
3.810958624 10.4162035 -3.13991189 2.240786106e-38
3.76931715 10.43217373 -3.140132189 2.240786106e-38
3.731582165 10.45909977 -3.143697262 2.240786106e-38
3.579016685 10.42710304 -3.12087965 2.240786106e-38
3.336114407 10.39529324 -3.090661526 2.240786106e-38
3.301056385 10.4299736 -3.097002029 2.240786106e-38
3.216239929 10.45341015 -3.096183062 2.240786106e-38
3.170073032 10.45267296 -3.09216404 2.240786106e-38
3.113056898 10.41525459 -3.077369452 2.240786106e-38
3.072980165 10.43385792 -3.079190254 2.240786106e-38
3.027811766 10.43508434 -3.075935364 2.240786106e-38
2.972596645 10.40085506 -3.062298536 2.240786106e-38
2.938440323 10.43998814 -3.070317507 2.240786106e-38
2.84431386 10.42626381 -3.059459686 2.240786106e-38
2.810585499 10.46818161 -3.068417549 2.240786106e-38
2.758773327 10.44264317 -3.057656288 2.240786106e-38
2.671008348 10.44994736 -3.053407907 2.240786106e-38
2.62168622 10.43156719 -3.044933319 2.240786106e-38
2.570051432 10.4028511 -3.033511877 2.240786106e-38
2.530388117 10.42205334 -3.036123037 2.240786106e-38
2.482712746 10.40800476 -3.029094934 2.240786106e-38
2.392888546 10.4012928 -3.021445036 2.240786106e-38
2.350794077 10.40965271 -3.021103859 2.240786106e-38
2.304150105 10.39744759 -3.014849424 2.240786106e-38
2.271207809 10.44745922 -3.026679039 2.240786106e-38
2.175431967 10.40934753 -3.010473251 2.240786106e-38
2.13885951 10.44385719 -3.017946482 2.240786106e-38
2.089604378 10.41622353 -3.007505655 2.240786106e-38
2.053340673 10.4531517 -3.01576066 2.240786106e-38
2.005888462 10.43318272 -3.007649183 2.240786106e-38
1.957476258 10.40683174 -2.997760296 2.240786106e-38
1.916322231 10.41838074 -2.99884367 2.240786106e-38
1.78707552 10.42050743 -2.993033886 2.240786106e-38
1.703402877 10.4356041 -2.993339062 2.240786106e-38
1.665162325 10.46577072 -3.000047445 2.240786106e-38
1.616071463 10.42718124 -2.987099409 2.240786106e-38
1.532487512 10.44187927 -2.987686872 2.240786106e-38
1.459911346 10.53619576 -3.011216402 2.240786106e-38
1.416361809 10.53316593 -3.008698702 2.240786106e-38
1.373501897 10.53490829 -3.007595062 2.240786106e-38
1.33376205 10.56109238 -3.013514996 2.240786106e-38
1.25413239 10.99576187 -3.133000851 2.240786106e-38
1.250821471 11.37257576 -3.238908052 2.231602557e-38
0.9120551348 8.611011505 -2.451350689 2.259153205e-38
0.8719559312 8.560852051 -2.436058283 2.259153205e-38
0.836122036 8.549832344 -2.431942463 2.259153205e-38
0.7667807937 8.549900055 -2.43012929 2.259153205e-38
0.697137475 8.54496479 -2.427048922 2.259153205e-38
0.6666546464 8.597720146 -2.44125843 2.259153205e-38
0.6324043274 8.604578972 -2.442463636 2.259153205e-38
1.221330762 18.66989136 -5.296608925 2.167317709e-38
1.145321727 18.65901184 -5.292179585 2.167317709e-38
1.071604967 18.6862011 -5.298622131 2.167317709e-38
0.9944241643 18.65195656 -5.287734509 2.167317709e-38
0.922555089 18.71896362 -5.305634975 2.167317709e-38
0.8466262221 18.70769119 -5.30143404 2.167317709e-38
0.7724294066 18.73566246 -5.308437824 2.167317709e-38
0.6947667599 18.67545891 -5.29054594 2.167317709e-38
0.6210150719 18.71789169 -5.30181694 2.167317709e-38
0.5453034639 18.70521927 -5.297563553 2.167317709e-38
0.3198216259 18.7181015 -5.29973793 2.167317709e-38
0.2449096292 18.74442291 -5.306864738 2.167317709e-38
0.1691937149 18.70532417 -5.295559883 2.167317709e-38
0.09395745397 18.69902229 -5.293626308 2.167317709e-38
-0.1316957325 18.72175217 -5.300125122 2.167317709e-38
-0.2820200324 18.70807076 -5.296722412 2.167317709e-38
-0.357264787 18.70854759 -5.297221184 2.167317709e-38
-0.5066660047 18.66840935 -5.286839008 2.167317709e-38
-0.5817508698 18.66764832 -5.287243366 2.167317709e-38
-0.6582514048 18.70668793 -5.299007416 2.167317709e-38
-0.732319057 18.67538643 -5.29093647 2.167317709e-38
-0.8816236854 18.65115929 -5.285904884 2.167317709e-38
-0.9576117396 18.66753197 -5.291593075 2.167317709e-38
-1.034113526 18.6899147 -5.299073219 2.167317709e-38
-1.184212923 18.67906189 -5.298524857 2.167317709e-38
-1.256525874 18.63303757 -5.286859512 2.167317709e-38
-1.333723903 18.66004372 -5.296000957 2.167317709e-38
-1.407392979 18.63698959 -5.29102087 2.167317709e-38
-1.48188436 18.62585449 -5.289508343 2.167317709e-38
-1.556590796 18.61790085 -5.288983345 2.167317709e-38
-1.6333884 18.6339283 -5.295360088 2.167317709e-38
-1.710015893 18.64612198 -5.30073595 2.167317709e-38
-1.783275366 18.62148476 -5.295726776 2.167317709e-38
-1.857000232 18.60301781 -5.292554379 2.167317709e-38
-1.930660248 18.58471298 -5.289513111 2.167317709e-38
-2.011225939 18.63109779 -5.304973602 2.167317709e-38
-2.15421629 18.55633354 -5.288445473 2.167317709e-38
-2.230567694 18.56229019 -5.292656422 2.167317709e-38
-2.533671379 18.56015205 -5.302981853 2.167317709e-38
-2.603092432 18.51299286 -5.292450905 2.167317709e-38
-2.751409054 19.01324844 -5.43858099 2.15813416e-38
-2.82807374 19.00370979 -5.439061165 2.15813416e-38
-3.060464859 18.9894619 -5.445150852 2.15813416e-38
-3.143352747 19.01675606 -5.456557274 2.15813416e-38
-3.214531183 18.97300911 -5.447669029 2.15813416e-38
-3.367720842 18.95077133 -5.448880672 2.15813416e-38
-3.748570442 18.88255882 -5.449832916 2.15813416e-38
-3.818884373 18.8398819 -5.441902161 2.15813416e-38
-3.89318347 18.81755257 -5.439930439 2.15813416e-38
-3.980184078 18.85573959 -5.455550671 2.15813416e-38
-4.04830265 18.80403137 -5.445254803 2.15813416e-38
-4.120399952 18.77185631 -5.440693855 2.15813416e-38
-4.196712494 18.75907707 -5.441831589 2.15813416e-38
-4.506659031 18.72595787 -5.452547073 2.15813416e-38
-4.651453495 18.66661263 -5.445977211 2.15813416e-38
-4.728670597 18.65649223 -5.448525906 2.15813416e-38
-4.799006939 18.61944389 -5.443295956 2.15813416e-38
-5.016003609 18.53357506 -5.435483456 2.15813416e-38
-5.174582481 18.52748489 -5.445723534 2.15813416e-38
-5.471774578 18.44175148 -5.445683956 2.15813416e-38
-5.992655754 18.29323578 -5.449478149 2.15813416e-38
-6.066036224 18.26865768 -5.449375629 2.15813416e-38
-6.127138138 18.20763397 -5.438477039 2.15813416e-38
-6.207902908 18.20521927 -5.445164204 2.15813416e-38
-6.345128059 18.12916565 -5.437499523 2.15813416e-38
-6.509116173 18.12896156 -5.452960014 2.15813416e-38
-6.639631271 18.03524208 -5.440650463 2.15813416e-38
-6.718799114 18.02640152 -5.446089268 2.15813416e-38
-6.79095459 17.99857903 -5.445886612 2.15813416e-38
-6.932831764 17.93665886 -5.443840027 2.15813416e-38
-7.005814075 17.91103554 -5.44456768 2.15813416e-38
-7.080888748 17.89063835 -5.446976185 2.15813416e-38
-7.223308563 17.83020973 -5.446083546 2.15813416e-38
-7.291753292 17.79330254 -5.44371891 2.15813416e-38
-7.440359592 17.74789047 -5.447952271 2.15813416e-38
-7.714795113 17.60320473 -5.440917015 2.15813416e-38
-7.845498085 17.51700974 -5.433596611 2.15813416e-38
-7.944975853 17.54964256 -5.453582764 2.15813416e-38
-7.995687008 17.47432518 -5.440123081 2.15813416e-38
-8.078566551 17.46952438 -5.448693752 2.15813416e-38
-8.142701149 17.4240284 -5.444667816 2.15813416e-38
-8.356585503 17.33357811 -5.447502136 2.15813416e-38
-8.501257896 17.2772274 -5.451088905 2.15813416e-38
-8.617386818 17.16344833 -5.436881542 2.15813416e-38
-8.703722 17.16299057 -5.447780609 2.15813416e-38
-8.917116165 17.07027054 -5.452085972 2.15813416e-38
-8.976421356 17.01676941 -5.446478844 2.15813416e-38
-9.111911774 16.94211578 -5.445858955 2.15813416e-38
-9.237301826 16.84917068 -5.439668655 2.15813416e-38
-9.369522095 16.7690239 -5.437949657 2.15813416e-38
-9.446235657 16.74785805 -5.443356991 2.15813416e-38
-9.517612457 16.71694374 -5.445714474 2.15813416e-38
