# .PCD v0.7 - Point Cloud Data file format
VERSION 0.7
FIELDS x y z rgb
SIZE 4 4 4 4
TYPE F F F F
COUNT 1 1 1 1
WIDTH 888
HEIGHT 1
VIEWPOINT 0 0 0 1 0 0 0
POINTS 888
DATA ascii
22.11915398 11.30108738 -4.668740749 2.112216412e-38
22.13430786 11.42126942 -4.681591988 2.112216412e-38
22.15951538 11.5473032 -4.696706772 2.112216412e-38
22.1195488 11.86784458 -4.718227863 2.112216412e-38
22.14784622 11.9979353 -4.734512806 2.112216412e-38
22.14640236 12.11255836 -4.74457407 2.112216412e-38
22.15301132 12.2321291 -4.75648737 2.112216412e-38
22.14059448 12.69402981 -4.797033787 2.112216412e-38
22.13041115 13.1654644 -4.840072155 2.112216412e-38
22.1362648 13.41107178 -4.864777565 2.103032862e-38
22.13724709 13.5336132 -4.876909733 2.103032862e-38
22.16065407 13.79390907 -4.906341553 2.103032862e-38
22.15363312 13.91340637 -4.917128086 2.103032862e-38
22.14767456 14.15921783 -4.940914154 2.103032862e-38
22.15880203 14.54574203 -4.982172012 2.103032862e-38
22.14368629 15.05078888 -5.032541275 2.103032862e-38
22.1440239 15.4446907 -5.074577808 2.093849312e-38
22.14286804 15.57656956 -5.08862114 2.093849312e-38
22.12747192 15.96807098 -5.128970623 2.093849312e-38
22.12745476 16.10372543 -5.143930435 2.093849312e-38
22.12342453 16.23723221 -5.158126354 2.093849312e-38
22.17028999 16.54751778 -5.19990015 2.093849312e-38
22.13972092 16.80354309 -5.224252224 2.093849312e-38
22.16301918 16.96206474 -5.245794773 2.093849312e-38
22.13955688 17.08568764 -5.256459236 2.093849312e-38
22.1167984 17.21042442 -5.267433167 2.084665763e-38
22.08919907 17.47589684 -5.294159412 2.084665763e-38
21.95761871 17.66067314 -5.296483517 2.084665763e-38
21.89976501 17.7596035 -5.299711227 2.084665763e-38
21.80459785 17.82819176 -5.293981075 2.084665763e-38
21.75154877 17.93119621 -5.298557758 2.084665763e-38
21.67965126 18.01879883 -5.298643589 2.084665763e-38
21.5836277 18.08618736 -5.292905807 2.084665763e-38
21.50663376 18.16933441 -5.29189539 2.084665763e-38
21.4522953 18.2717247 -5.296551228 2.084665763e-38
21.30390739 18.44292259 -5.296355247 2.084665763e-38
21.2227726 18.52246094 -5.294651985 2.084665763e-38
21.0789814 18.69765854 -5.296118259 2.084665763e-38
20.98622322 18.76664734 -5.291719437 2.084665763e-38
20.91866875 18.85812759 -5.293758869 2.084665763e-38
20.84085655 18.94041443 -5.293297291 2.084665763e-38
20.69501305 19.11390495 -5.295108318 2.084665763e-38
20.51270676 19.25339127 -5.287895203 2.084665763e-38
20.47594261 19.37431145 -5.298454762 2.084665763e-38
20.3760643 19.43564987 -5.292786598 2.084665763e-38
20.29752159 19.51714897 -5.292719364 2.084665763e-38
20.15691185 19.69626617 -5.297177792 2.084665763e-38
20.07377434 19.77339935 -5.296172619 2.084665763e-38
19.97442818 19.83439255 -5.290957451 2.084665763e-38
19.82478523 20.00489426 -5.29375124 2.084665763e-38
19.58985901 20.25056839 -5.295855999 2.084665763e-38
19.33569717 20.47630882 -5.29351902 2.084665763e-38
19.27975464 20.58218765 -5.300817013 2.084665763e-38
19.17101288 20.6316967 -5.29367733 2.084665763e-38
19.09890747 20.7205162 -5.296723843 2.084665763e-38
18.9889946 20.76818275 -5.289353848 2.084665763e-38
18.90163231 20.84025955 -5.288311481 2.084665763e-38
18.85997963 20.96304321 -5.300187588 2.084665763e-38
18.64839554 21.06609154 -5.288160324 2.084665763e-38
18.59209633 21.17336464 -5.296288967 2.084665763e-38
18.48158836 21.21894264 -5.289062023 2.084665763e-38
18.40407372 21.30228233 -5.291346073 2.084665763e-38
18.31193352 21.36866951 -5.28950882 2.084665763e-38
18.30028152 21.52964592 -5.311100483 2.084665763e-38
18.25388527 21.65083694 -5.322852612 2.084665763e-38
18.27643204 21.85526085 -5.35500288 2.084665763e-38
18.25355911 22.00709152 -5.374181271 2.084665763e-38
18.27959061 22.21964455 -5.408099651 2.084665763e-38
18.25115204 22.367733 -5.426242352 2.084665763e-38
18.19488716 22.4826889 -5.4363451 2.084665763e-38
18.11281013 22.5661869 -5.438881397 2.084665763e-38
18.05582428 22.68135643 -5.449103355 2.084665763e-38
17.95925713 22.74710846 -5.447512627 2.084665763e-38
17.50230408 23.10854721 -5.448711872 2.084665763e-38
17.40027237 23.16677094 -5.445900917 2.084665763e-38
17.1959343 23.28216362 -5.44035387 2.084665763e-38
16.94285393 23.5280571 -5.449664116 2.084665763e-38
16.81597137 23.55094528 -5.439264297 2.084665763e-38
16.74595261 23.65335274 -5.44732523 2.084665763e-38
16.54721832 23.77568626 -5.444682598 2.084665763e-38
16.24936104 23.95886993 -5.441357613 2.084665763e-38
16.16075516 24.03564262 -5.443996906 2.084665763e-38
15.97615242 24.17865372 -5.447122574 2.084665763e-38
15.8744421 24.23600578 -5.445620537 2.084665763e-38
15.67103004 24.35033417 -5.442823887 2.084665763e-38
15.38241863 24.54740334 -5.445011139 2.084665763e-38
15.19506645 24.6873703 -5.448778629 2.084665763e-38
14.98022366 24.78248596 -5.443012238 2.084665763e-38
14.88739014 24.85401726 -5.445539474 2.084665763e-38
14.78707504 24.9132061 -5.445438862 2.084665763e-38
14.7022953 24.99879646 -5.451179028 2.084665763e-38
14.58681679 25.03217125 -5.445626259 2.084665763e-38
14.4671793 25.05787277 -5.438520908 2.084665763e-38
14.28052521 25.20033264 -5.444344521 2.084665763e-38
14.19300652 25.28228378 -5.449681759 2.084665763e-38
13.87148857 25.42305565 -5.443569183 2.084665763e-38
13.57705212 25.61334229 -5.448850632 2.084665763e-38
13.45258141 25.62697411 -5.440201759 2.084665763e-38
13.36855221 25.71752739 -5.447979927 2.084665763e-38
13.16390896 25.82919502 -5.449034691 2.084665763e-38
13.0479002 25.85799026 -5.444002151 2.084665763e-38
12.94487476 25.91228104 -5.44443655 2.084665763e-38
12.82780266 25.93828964 -5.439013004 2.084665763e-38
12.73490715 26.01305962 -5.443915844 2.084665763e-38
12.63691807 26.07783699 -5.446799755 2.084665763e-38
12.53323078 26.13103485 -5.447338581 2.084665763e-38
12.42328358 26.17108345 -5.445234776 2.084665763e-38
12.32892895 26.2441082 -5.450077534 2.084665763e-38
12.10601234 26.31734276 -5.44489193 2.084665763e-38
12.00206375 26.3700943 -5.445777416 2.084665763e-38
11.88650703 26.3971386 -5.441456318 2.084665763e-38
11.78726101 26.46033859 -5.444668293 2.084665763e-38
11.68610859 26.51958656 -5.447147846 2.084665763e-38
11.5826416 26.57377052 -5.448669434 2.084665763e-38
11.46270275 26.58989716 -5.442483902 2.084665763e-38
11.36701202 26.66226387 -5.447899818 2.084665763e-38
11.24253464 26.66692734 -5.439573288 2.084665763e-38
11.13570786 26.71302605 -5.439801693 2.084665763e-38
10.93841648 26.84546089 -5.448684692 2.084665763e-38
10.82658863 26.87971115 -5.446760178 2.084665763e-38
10.6042223 26.95088005 -5.44372797 2.084665763e-38
10.28404236 27.09159088 -5.44670248 2.084665763e-38
10.06369686 27.16743088 -5.445505142 2.084665763e-38
9.949438095 27.19407463 -5.442788124 2.084665763e-38
9.726995468 27.26340294 -5.440835476 2.084665763e-38
9.608535767 27.27733803 -5.435861111 2.084665763e-38
9.5235672 27.38697052 -5.450035095 2.084665763e-38
9.419398308 27.44254684 -5.453514576 2.084665763e-38
9.182378769 27.46923447 -5.443972588 2.084665763e-38
9.077605247 27.52326393 -5.447403431 2.084665763e-38
8.852433205 27.58420753 -5.445203304 2.084665763e-38
8.74145031 27.61946297 -5.44518137 2.084665763e-38
8.406858444 27.72001266 -5.444619656 2.084665763e-38
8.293164253 27.7462101 -5.443172932 2.084665763e-38
8.172475815 27.74842644 -5.437122822 2.084665763e-38
7.954235077 27.8311367 -5.440618038 2.084665763e-38
7.839286804 27.85219765 -5.438531399 2.084665763e-38
7.72329855 27.86923981 -5.435751915 2.084665763e-38
7.624572754 27.94900513 -5.445292473 2.084665763e-38
7.508703709 27.9665966 -5.442790508 2.084665763e-38
7.39120245 27.97754478 -5.439094543 2.084665763e-38
7.287764549 28.04202652 -5.445895195 2.084665763e-38
7.176629543 28.07758141 -5.4471488 2.084665763e-38
6.953267097 28.14488602 -5.449185848 2.084665763e-38
6.715072155 28.15088654 -5.439717293 2.084665763e-38
6.270274162 28.29454422 -5.447288513 2.084665763e-38
6.034729481 28.30718994 -5.440210342 2.084665763e-38
5.807692051 28.35844994 -5.440907955 2.084665763e-38
5.696631908 28.39642715 -5.443759918 2.084665763e-38
5.585639954 28.43545341 -5.446890354 2.084665763e-38
5.470032215 28.45116615 -5.445639133 2.084665763e-38
5.348829269 28.43686104 -5.438744068 2.084665763e-38
5.013641357 28.54557037 -5.447580338 2.084665763e-38
4.786987305 28.60299873 -5.45101881 2.084665763e-38
4.663117886 28.56779671 -5.440692902 2.084665763e-38
4.550921917 28.60312843 -5.443891048 2.084665763e-38
4.322555542 28.65041351 -5.446098804 2.084665763e-38
4.203876019 28.64387131 -5.441599846 2.084665763e-38
4.095306396 28.70694542 -5.450413227 2.084665763e-38
3.859296083 28.70115089 -5.443243504 2.084665763e-38
3.745193958 28.72652054 -5.445154667 2.084665763e-38
3.627038717 28.72031593 -5.441173077 2.084665763e-38
3.513400793 28.74977684 -5.444034576 2.084665763e-38
3.289103985 28.83817482 -5.455588341 2.084665763e-38
3.167174339 28.7967205 -5.445294857 2.084665763e-38
2.937591076 28.8413887 -5.44909811 2.084665763e-38
1.838306189 28.10127068 -5.293226719 2.084665763e-38
1.611051202 28.09302139 -5.289060593 2.084665763e-38
0.7076670527 28.16056061 -5.294751167 2.084665763e-38
0.3680385649 28.16863632 -5.295051098 2.084665763e-38
0.2550499141 28.19695091 -5.30013752 2.084665763e-38
0.1416406631 28.18697739 -5.298116684 2.084665763e-38
-0.1980467588 28.15136147 -5.291481972 2.084665763e-38
-0.311391294 28.16687775 -5.29459095 2.084665763e-38
-0.4250198007 28.19227791 -5.299644947 2.084665763e-38
-0.537720561 28.15756607 -5.293486595 2.084665763e-38
-0.6511047482 28.16329765 -5.29501009 2.084665763e-38
-0.8770237565 28.14147949 -5.292061806 2.084665763e-38
-0.9906754494 28.15276909 -5.294892311 2.084665763e-38
-1.1044662 28.16473007 -5.297937393 2.084665763e-38
-0.307816416 5.185282707 -0.9763454795 2.295887404e-38
-0.368411541 5.154364586 -0.9712863564 2.295887404e-38
-0.386190623 5.113947392 -0.9639552236 2.295887404e-38
-0.4512651265 5.148033142 -0.971334517 2.295887404e-38
-0.4898433089 5.115031242 -0.9658200741 2.295887404e-38
-0.5420588255 5.217849255 -0.9860256314 2.295887404e-38
-0.563569963 5.220618725 -0.9869685769 2.295887404e-38
-3.25170517 28.00991058 -5.300122738 2.084665763e-38
-3.366426229 28.0146122 -5.303530693 2.084665763e-38
-3.471240997 27.93821144 -5.291665077 2.084665763e-38
-3.58707118 27.95164871 -5.296899796 2.084665763e-38
-3.695907593 27.91059494 -5.291892052 2.084665763e-38
-3.810448885 27.91293335 -5.295196533 2.084665763e-38
-4.036745071 27.89523315 -5.297823906 2.084665763e-38
-4.148285866 27.87496948 -5.297101974 2.084665763e-38
-4.260712147 27.86069489 -5.297600269 2.084665763e-38
-4.373310566 27.84738159 -5.298368454 2.084665763e-38
-4.589014053 27.76258469 -5.289088249 2.084665763e-38
-4.705083847 27.77053833 -5.29416132 2.084665763e-38
-4.816316128 27.74934006 -5.293771267 2.084665763e-38
-4.926444054 27.72190475 -5.29226923 2.084665763e-38
-5.0390172 27.70827675 -5.293492317 2.084665763e-38
-5.26295042 27.67386818 -5.294835091 2.084665763e-38
-5.493597984 27.67263794 -5.302875519 2.084665763e-38
-5.606679916 27.6595974 -5.304653645 2.084665763e-38
-5.707804203 27.58838463 -5.295352936 2.084665763e-38
-5.829307079 27.61566925 -5.305044651 2.084665763e-38
-6.045456886 27.54206657 -5.300075054 2.084665763e-38
-6.154951572 27.51231003 -5.299062252 2.084665763e-38
-6.262223721 27.47292709 -5.29628706 2.084665763e-38
-6.491277218 27.4571228 -5.303126812 2.084665763e-38
-6.593885899 27.39871407 -5.296923637 2.084665763e-38
-6.70082283 27.3591404 -5.294436932 2.084665763e-38
-6.821218491 27.3740139 -5.302578926 2.084665763e-38
-7.037099361 27.30285835 -5.299584866 2.084665763e-38
-7.149040699 27.28291702 -5.30124855 2.084665763e-38
-7.370909214 27.23464966 -5.30321455 2.084665763e-38
-7.65463686 26.98832893 -5.27284193 2.084665763e-38
-7.871042728 26.92443657 -5.272553444 2.084665763e-38
-7.976874828 26.8845787 -5.270985603 2.084665763e-38
-8.091193199 26.87368393 -5.275183201 2.084665763e-38
-8.200334549 26.84470749 -5.275923729 2.084665763e-38
-8.566115379 26.87750816 -5.302289486 2.084665763e-38
-8.677333832 26.85290909 -5.304275036 2.084665763e-38
-8.891430855 26.77770042 -5.303369522 2.084665763e-38
-8.993580818 26.72561455 -5.300169945 2.084665763e-38
-9.535738945 26.55854225 -5.303980827 2.084665763e-38
-9.643849373 26.52392387 -5.304766655 2.084665763e-38
-9.961292267 26.40110397 -5.303844929 2.084665763e-38
-10.16770554 26.30584908 -5.300960541 2.084665763e-38
-10.38779736 26.24584389 -5.305527687 2.084665763e-38
-10.59536648 26.15379715 -5.303973198 2.084665763e-38
-10.69505882 26.09794617 -5.301323414 2.084665763e-38
-10.8167057 26.09528542 -5.309568882 2.084665763e-38
-10.91602802 26.03850937 -5.306900978 2.084665763e-38
-11.01836491 25.98913002 -5.305820465 2.084665763e-38
-11.11747646 25.93228149 -5.303300858 2.084665763e-38
-11.21749496 25.87788391 -5.301354408 2.084665763e-38
-11.34469891 25.88567162 -5.312245846 2.084665763e-38
-11.43231583 25.80292702 -5.304655552 2.084665763e-38
-11.84307194 25.61004066 -5.303466797 2.084665763e-38
-11.95979691 25.59191322 -5.309627056 2.084665763e-38
-12.1447649 25.45218849 -5.300726891 2.084665763e-38
-8.533522606 17.52011108 -3.662946463 2.167317709e-38
-8.687220573 17.30249786 -3.63909173 2.167317709e-38
-8.587817192 16.93441391 -3.568907261 2.167317709e-38
-8.902729034 16.71384811 -3.559420109 2.167317709e-38
-9.104418755 16.6066227 -3.559710741 2.167317709e-38
-9.186994553 16.59868813 -3.565897942 2.167317709e-38
-9.25808239 16.56956291 -3.567608595 2.167317709e-38
-9.347896576 16.57346344 -3.57650876 2.167317709e-38
-9.615105629 16.73143196 -3.627165556 2.167317709e-38
-9.600497246 16.55160904 -3.596520901 2.167317709e-38
-9.725349426 16.61263847 -3.618247271 2.167317709e-38
-9.797861099 16.58324814 -3.620393753 2.167317709e-38
-9.884000778 16.57650375 -3.627568722 2.167317709e-38
-9.962081909 16.55579948 -3.63176918 2.167317709e-38
-10.05576706 16.56044006 -3.641627312 2.167317709e-38
-10.2247076 16.53747749 -3.654534817 2.167317709e-38
-10.31581688 16.53585243 -3.663310051 2.167317709e-38
-10.39477539 16.51420975 -3.667746782 2.167317709e-38
-10.48962879 16.51725578 -3.677758217 2.15813416e-38
-15.42834949 23.6585083 -5.308885574 2.084665763e-38
-15.59932423 23.50548935 -5.302516937 2.084665763e-38
-15.69589424 23.44588089 -5.303260803 2.084665763e-38
-15.80395222 23.40323257 -5.30794096 2.084665763e-38
-15.90787792 23.35415459 -5.311271191 2.084665763e-38
-10.06326771 14.64688396 -3.340212345 2.176501259e-38
-10.07390213 14.53682423 -3.324319124 2.176501259e-38
-10.12324524 14.48328686 -3.321357727 2.176501259e-38
-10.16951466 14.42563915 -3.317486286 2.176501259e-38
-10.23213577 14.39127827 -3.319014072 2.176501259e-38
-10.25800514 14.30552101 -3.308721542 2.176501259e-38
-10.35067272 14.19241524 -3.301701784 2.176501259e-38
-10.41998386 14.16746712 -3.30561614 2.176501259e-38
-10.48054886 14.13045502 -3.306783915 2.176501259e-38
-10.5833931 14.03191376 -3.303529024 2.176501259e-38
-10.64679718 13.99857426 -3.305727959 2.176501259e-38
-10.93738651 13.79613209 -3.309175491 2.176501259e-38
-11.26118088 13.63251305 -3.323556185 2.176501259e-38
-11.41390991 13.59331703 -3.336266041 2.176501259e-38
-11.47583866 13.55604649 -3.338413954 2.176501259e-38
-11.80710697 13.50100613 -3.371183634 2.176501259e-38
-18.93499947 20.96154976 -5.309419632 2.084665763e-38
-18.99126816 20.85469818 -5.30164957 2.084665763e-38
-19.11289406 20.81949806 -5.312192917 2.084665763e-38
-19.45749474 20.52250099 -5.315561771 2.084665763e-38
-19.52261353 20.42610168 -5.310874939 2.084665763e-38
-19.6118145 20.35497093 -5.312837601 2.084665763e-38
-19.67707062 20.2590847 -5.308412075 2.084665763e-38
-19.77954102 20.20147896 -5.314106941 2.084665763e-38
-19.85411263 20.11521339 -5.3123703 2.084665763e-38
-19.93985558 20.04031754 -5.313714981 2.084665763e-38
-20.00773811 19.94750786 -5.310394764 2.084665763e-38
-20.18832779 19.80644798 -5.315885067 2.084665763e-38
-20.24634552 19.70427513 -5.310259819 2.084665763e-38
-20.33985901 19.63667679 -5.314041138 2.084665763e-38
-20.40758324 19.54418945 -5.311163425 2.084665763e-38
-20.51672173 19.49119568 -5.319135666 2.084665763e-38
-20.7308445 19.22436905 -5.314156532 2.084665763e-38
-20.80810928 19.14099121 -5.314188957 2.084665763e-38
-20.90306473 19.07378769 -5.318818569 2.084665763e-38
-21.12410927 18.81367111 -5.316938877 2.084665763e-38
-21.18362617 18.71452141 -5.312941074 2.084665763e-38
-21.25242996 18.62372208 -5.31137991 2.084665763e-38
-21.32835388 18.53921318 -5.311683178 2.084665763e-38
-21.48941231 18.37797546 -5.31482029 2.084665763e-38
-21.55489922 18.28448105 -5.31279707 2.084665763e-38
-21.70536613 18.11404228 -5.313816547 2.084665763e-38
-21.78406143 18.03166389 -5.315295219 2.084665763e-38
-21.98790169 17.75793266 -5.312384605 2.084665763e-38
-22.06202698 17.6717205 -5.313085079 2.084665763e-38
-22.23140335 17.51584053 -5.319787979 2.084665763e-38
-22.3579464 17.32602882 -5.316566467 2.084665763e-38
-22.42732048 17.23594666 -5.316543579 2.084665763e-38
-22.651371 16.97758675 -5.320731163 2.084665763e-38
-22.75233078 16.7692852 -5.312602997 2.084665763e-38
-22.90309143 16.59791374 -5.316474438 2.084665763e-38
-23.00034142 16.52776337 -5.323585033 2.084665763e-38
-23.03055191 16.40949249 -5.315263271 2.084665763e-38
-23.10581779 16.32349396 -5.317451 2.084665763e-38
-23.13983727 16.20847511 -5.310238361 2.084665763e-38
-23.27375793 16.02490044 -5.311230659 2.084665763e-38
-23.49932671 15.76588631 -5.318932056 2.084665763e-38
-23.72480774 15.36983395 -5.313340187 2.084665763e-38
-23.12550354 14.71897507 -5.152447701 2.093849312e-38
-23.08629036 14.56395912 -5.130630016 2.093849312e-38
-23.05883789 14.28876019 -5.098831654 2.093849312e-38
-23.085392 14.17710114 -5.092056274 2.093849312e-38
-23.04974556 14.02790833 -5.071712017 2.093849312e-38
-23.02823067 13.76233292 -5.042473793 2.103032862e-38
-23.08967209 13.67338276 -5.043848038 2.103032862e-38
-23.06775475 13.53544903 -5.027132511 2.103032862e-38
-23.08998299 13.42401409 -5.020177364 2.103032862e-38
-23.14591026 13.332304 -5.020645618 2.103032862e-38
-23.19800949 13.23840714 -5.020360947 2.103032862e-38
-23.43185234 13.12324619 -5.047967911 2.103032862e-38
-23.79972649 13.07903767 -5.104399681 2.093849312e-38
-24.01954651 13.07438374 -5.140235901 2.093849312e-38
-24.94744492 13.32059765 -5.315711975 2.084665763e-38
-24.77725601 12.97479248 -5.257047653 2.093849312e-38
-24.83283043 12.87697315 -5.257816792 2.093849312e-38
-25.2265873 12.82485676 -5.319182396 2.084665763e-38
-25.25295067 12.71076679 -5.313927174 2.084665763e-38
-25.37177467 12.64299107 -5.328189373 2.084665763e-38
-25.47078133 12.31114674 -5.317415714 2.084665763e-38
-25.51792145 12.20763397 -5.316966057 2.084665763e-38
-25.65764427 11.89642525 -5.315806389 2.084665763e-38
-25.73078346 11.80488491 -5.321079254 2.084665763e-38
-25.76038742 11.69332981 -5.317438126 2.084665763e-38
-25.83792877 11.60348606 -5.323771 2.084665763e-38
-25.86419678 11.49057674 -5.319623947 2.084665763e-38
-25.92666054 11.39373398 -5.323003292 2.084665763e-38
-25.9418354 11.27620983 -5.316771507 2.084665763e-38
-25.99135208 11.17372894 -5.317671776 2.084665763e-38
-26.0894413 10.96820068 -5.319519043 2.084665763e-38
-26.14279747 10.86718369 -5.321452618 2.084665763e-38
-26.15497017 10.74913311 -5.315090179 2.084665763e-38
-26.22342682 10.65425301 -5.320255756 2.084665763e-38
-26.27142143 10.55090523 -5.321341038 2.084665763e-38
-26.29011345 10.43587017 -5.316584587 2.084665763e-38
-26.33621407 10.33185387 -5.317476273 2.084665763e-38
-26.48863602 10.02474022 -5.323449612 2.084665763e-38
-26.51607895 9.913448334 -5.320913315 2.084665763e-38
-26.65244102 9.599707603 -5.32465601 2.084665763e-38
-26.6787014 9.488176346 -5.322238922 2.084665763e-38
-26.74129868 9.268935204 -5.319688797 2.084665763e-38
-26.78192711 9.162586212 -5.320399761 2.084665763e-38
-26.79526329 9.046995163 -5.315782547 2.084665763e-38
-26.85827255 8.94816494 -5.321103096 2.084665763e-38
-26.9338665 8.733397484 -5.321995735 2.084665763e-38
-26.98397255 8.629935265 -5.324999809 2.084665763e-38
-26.98440361 8.510634422 -5.31828928 2.084665763e-38
-27.00387001 8.397575378 -5.315428734 2.084665763e-38
-27.06236267 8.296618462 -5.320337296 2.084665763e-38
-27.14493752 8.083757401 -5.323620796 2.084665763e-38
-27.18636131 7.858684063 -5.319179535 2.084665763e-38
-27.19344711 7.742428303 -5.314435005 2.084665763e-38
-27.25566101 7.641838074 -5.320547581 2.084665763e-38
-27.26375961 7.526013374 -5.316178799 2.084665763e-38
-27.33312035 7.427035332 -5.323837757 2.084665763e-38
-27.34766006 7.313079834 -5.320904732 2.084665763e-38
-27.41182899 7.212286949 -5.327702999 2.084665763e-38
-27.4604187 6.872069359 -5.320651531 2.084665763e-38
-23.35077667 5.545255661 -4.511092186 2.121399961e-38
-27.55867004 6.42761755 -5.318972111 2.084665763e-38
-27.66894531 5.985942841 -5.320992947 2.084665763e-38
-26.16021538 5.549544334 -5.026515961 2.103032862e-38
-27.73230171 5.766649246 -5.324088573 2.084665763e-38
-27.7656498 5.541072369 -5.321763515 2.084665763e-38
-27.80411911 5.432632446 -5.324914455 2.084665763e-38
-27.83728409 5.323027134 -5.327116966 2.084665763e-38
-27.91007233 5.220719814 -5.336990833 2.084665763e-38
-27.96750069 5.115231037 -5.344031811 2.084665763e-38
-28.03866196 4.895573616 -5.349899292 2.084665763e-38
-28.06503487 4.552115917 -5.344064713 2.084665763e-38
-28.10072327 4.442050457 -5.347420692 2.084665763e-38
-28.12141991 4.329529285 -5.348001003 2.084665763e-38
-28.08471489 4.208353519 -5.337759018 2.084665763e-38
-28.12004471 4.098147392 -5.341302872 2.084665763e-38
-28.21912575 3.650252104 -5.348293304 2.084665763e-38
-28.23999786 3.422320127 -5.346846581 2.084665763e-38
-28.33925629 2.972833633 -5.35589695 2.084665763e-38
-28.32078171 2.855829954 -5.35019207 2.084665763e-38
-28.32691956 2.741463184 -5.349225521 2.084665763e-38
-29.07758331 2.69617939 -5.488889694 2.075482213e-38
-29.14925003 2.584679365 -5.50041151 2.075482213e-38
-29.19065285 2.470115662 -5.506302834 2.075482213e-38
-29.19031525 1.997966886 -5.499470711 2.075482213e-38
-29.18405533 1.879689336 -5.496823311 2.075482213e-38
-29.23044205 1.764723659 -5.504183292 2.075482213e-38
-29.2136879 1.528077483 -5.498533249 2.075482213e-38
-29.17415619 1.408443689 -5.489986897 2.075482213e-38
-29.23890686 1.176025987 -5.500211239 2.075482213e-38
-29.24528885 0.9408490062 -5.499811172 2.075482213e-38
-29.25488091 0.8234396577 -5.500947952 2.075482213e-38
-26.02901459 -0.209268108 -5.502188683 2.103032862e-38
-26.01208687 -0.3137080669 -5.498832226 2.103032862e-38
-26.00327682 -0.5227168202 -5.497690678 2.103032862e-38
-26.01036835 -0.7321149111 -5.50023222 2.103032862e-38
-26.00458527 -1.045936346 -5.501285076 2.103032862e-38
-25.98598099 -1.149830222 -5.498281002 2.103032862e-38
-26.00053978 -1.255220175 -5.502387047 2.103032862e-38
-25.9805851 -1.358969569 -5.499271393 2.103032862e-38
-25.96155167 -1.567355752 -5.497746468 2.103032862e-38
-25.9911232 -1.778969884 -5.506855011 2.103032862e-38
-25.96362686 -1.986938834 -5.504236698 2.103032862e-38
-25.92097473 -2.088513613 -5.496929646 2.103032862e-38
-25.91101074 -2.40255022 -5.500562191 2.103032862e-38
-25.89685249 -2.61139369 -5.501834393 2.103032862e-38
-25.87329674 -2.714130163 -5.4991045 2.103032862e-38
-25.82395744 -3.024222136 -5.495970726 2.103032862e-38
-25.81705856 -3.445088387 -5.505577564 2.103032862e-38
-25.75547981 -3.647853374 -5.498526096 2.103032862e-38
-25.76215553 -3.754504204 -5.503129005 2.103032862e-38
-25.75538826 -3.859327316 -5.504943371 2.103032862e-38
-25.69446564 -4.061667919 -5.498731136 2.103032862e-38
-25.68528557 -4.166113853 -5.500308514 2.103032862e-38
-25.66084671 -4.268070698 -5.498715878 2.103032862e-38
-25.61013412 -4.471543312 -5.495364666 2.103032862e-38
-25.59697723 -4.575352669 -5.496442318 2.103032862e-38
-25.59895897 -4.681978703 -5.500863552 2.103032862e-38
-25.55851173 -4.78083849 -5.496256351 2.103032862e-38
-25.53923225 -4.883575916 -5.496291161 2.103032862e-38
-25.5038662 -4.98316431 -5.492942333 2.103032862e-38
-25.52865028 -5.094634056 -5.5026474 2.103032862e-38
-25.4922905 -5.194019794 -5.499269485 2.103032862e-38
-25.43527603 -5.395747185 -5.496151924 2.103032862e-38
-25.41222191 -5.604731083 -5.500728607 2.103032862e-38
-25.3775692 -5.704161167 -5.498147011 2.103032862e-38
-25.35791206 -5.914317608 -5.504013062 2.103032862e-38
-25.31727219 -6.012241364 -5.500393867 2.103032862e-38
-25.28133011 -6.111176968 -5.497876644 2.103032862e-38
-25.26723671 -6.215389729 -5.500200748 2.103032862e-38
-25.21157265 -6.417085171 -5.499137402 2.103032862e-38
-25.1924839 -6.520167828 -5.500646591 2.103032862e-38
-25.10550308 -6.821733952 -5.499219418 2.103032862e-38
-25.07434082 -6.921619892 -5.498443127 2.103032862e-38
-25.05250359 -7.024106026 -5.499803066 2.103032862e-38
-25.00217628 -7.227297306 -5.501329899 2.103032862e-38
-24.97547913 -7.43768549 -5.508440018 2.103032862e-38
-24.89581108 -7.523040771 -5.497494221 2.103032862e-38
-24.88205719 -7.628173351 -5.501184464 2.103032862e-38
-24.83231926 -7.722268105 -5.497005939 2.103032862e-38
-24.78798103 -7.927595139 -5.501123428 2.103032862e-38
-24.6757679 -8.221013069 -5.497822285 2.103032862e-38
-24.65155029 -8.323197365 -5.499837399 2.103032862e-38
-24.62469482 -8.424549103 -5.501355648 2.103032862e-38
-24.57366562 -8.517591476 -5.497560978 2.103032862e-38
-24.47732925 -8.816307068 -5.499418259 2.103032862e-38
-24.42657471 -8.909118652 -5.496014595 2.103032862e-38
-24.3149929 -9.314067841 -5.503901958 2.103032862e-38
-24.26723289 -9.407788277 -5.501597404 2.103032862e-38
-24.19831085 -9.605628967 -5.503330231 2.103032862e-38
-24.13347435 -9.692254066 -5.497349262 2.103032862e-38
-24.09816742 -9.790618896 -5.498168945 2.103032862e-38
-24.0503788 -9.88435173 -5.496430397 2.103032862e-38
-24.02915955 -9.988629341 -5.500664711 2.103032862e-38
-23.99876595 -10.08931351 -5.502941608 2.103032862e-38
-23.94828606 -10.18151188 -5.500684261 2.103032862e-38
-23.90656662 -10.27745056 -5.500548363 2.103032862e-38
-23.86275864 -10.37247467 -5.500020504 2.103032862e-38
-23.79968452 -10.45900154 -5.495128155 2.103032862e-38
-23.78647232 -10.56748676 -5.501842499 2.103032862e-38
-23.72451019 -10.65436077 -5.497371674 2.103032862e-38
-23.564394 -11.04112911 -5.500700951 2.103032862e-38
-23.44976044 -11.21822929 -5.494820595 2.103032862e-38
-23.42773819 -11.32364178 -5.500280857 2.103032862e-38
-23.32266998 -11.50509071 -5.497153759 2.103032862e-38
-23.30068016 -11.61092949 -5.50292635 2.103032862e-38
-23.23022652 -11.69263268 -5.497345448 2.103032862e-38
-23.14313316 -11.76563931 -5.487883091 2.103032862e-38
-23.09618187 -11.97642136 -5.499406338 2.103032862e-38
-23.05278206 -12.07175922 -5.500583649 2.103032862e-38
-23.00613213 -12.16541576 -5.501076698 2.103032862e-38
-22.94443893 -12.25130272 -5.498160362 2.103032862e-38
-22.8256321 -12.42446613 -5.493334293 2.103032862e-38
-22.77505684 -12.63536358 -5.505440712 2.103032862e-38
-22.6819191 -12.70321083 -5.495227814 2.103032862e-38
-22.4509182 -13.17348862 -5.502315998 2.103032862e-38
-22.11289406 -13.21527767 -5.445334911 2.112216412e-38
-21.88532066 -13.19897461 -5.402319908 2.112216412e-38
-21.39608002 -13.49767017 -5.34744978 2.112216412e-38
-21.28741646 -13.66951752 -5.347555161 2.112216412e-38
-21.18765068 -13.84738159 -5.350319862 2.112216412e-38
-21.13316917 -13.9333334 -5.350661278 2.112216412e-38
-21.09619141 -14.03094769 -5.355537415 2.112216412e-38
-20.90799141 -14.27241802 -5.351068974 2.112216412e-38
-20.82675362 -14.34002972 -5.344986439 2.112216412e-38
-20.78510475 -14.43486214 -5.349146843 2.112216412e-38
-20.70141411 -14.50045109 -5.342568398 2.112216412e-38
-20.64692688 -14.58635712 -5.343595505 2.112216412e-38
-20.5477066 -14.76532173 -5.34846735 2.112216412e-38
-20.46558571 -14.83143902 -5.342568874 2.112216412e-38
-20.41908264 -14.92328453 -5.34604454 2.112216412e-38
-20.36575508 -15.01028061 -5.347837448 2.112216412e-38
-20.18215561 -15.25395775 -5.347546101 2.112216412e-38
-20.14008331 -15.34975815 -5.352705002 2.112216412e-38
-20.01027489 -15.5067234 -5.351167679 2.112216412e-38
-19.91670036 -15.56276894 -5.342832565 2.112216412e-38
-18.96545601 -15.31692505 -5.153067589 2.121399961e-38
-18.90023804 -15.39020252 -5.152111053 2.121399961e-38
-19.54333687 -16.04494476 -5.344954014 2.112216412e-38
-19.49459457 -16.13654137 -5.349318027 2.112216412e-38
-19.36976814 -16.29743385 -5.350852966 2.112216412e-38
-19.25498581 -16.33349991 -5.337238789 2.112216412e-38
-19.20630836 -16.42539215 -5.341994286 2.112216412e-38
-19.10300255 -16.47050476 -5.331645966 2.112216412e-38
-17.4347496 -15.40259457 -4.917528629 2.130583511e-38
-18.74494362 -16.83067894 -5.325180531 2.112216412e-38
-18.67281151 -16.90162086 -5.323831081 2.112216412e-38
-16.93278503 -15.45094967 -4.845403194 2.130583511e-38
-16.73639488 -15.39549541 -4.806875229 2.130583511e-38
-16.47768211 -15.40391731 -4.767987251 2.13976706e-38
-16.33465767 -15.3937273 -4.744468689 2.13976706e-38
-16.61737061 -15.78674603 -4.844974041 2.130583511e-38
-15.92431068 -15.37379932 -4.678794861 2.13976706e-38
-18.0178833 -17.53546143 -5.314581394 2.112216412e-38
-17.85169601 -17.65539742 -5.307260036 2.112216412e-38
-17.80164909 -17.74802589 -5.313549519 2.112216412e-38
-17.70700073 -17.7961731 -5.306610107 2.112216412e-38
-17.65358734 -17.88573456 -5.312110901 2.112216412e-38
-17.56063843 -17.93522072 -5.30579567 2.112216412e-38
-17.50827599 -18.02612305 -5.311825275 2.112216412e-38
-17.41007042 -18.06978989 -5.304026604 2.112216412e-38
-17.33795929 -18.14032364 -5.304229736 2.112216412e-38
-14.42467594 -15.46129513 -4.469686985 2.14895061e-38
-17.04569054 -18.41852379 -5.304740429 2.112216412e-38
-16.96945953 -18.4846611 -5.304098129 2.112216412e-38
-16.75397491 -18.69760323 -5.306836128 2.112216412e-38
-16.68668747 -18.77386665 -5.309398651 2.112216412e-38
-16.61685944 -18.84728241 -5.311225891 2.112216412e-38
-16.46071625 -18.97570229 -5.309946537 2.112216412e-38
-16.3031311 -19.10210419 -5.308465958 2.112216412e-38
-16.06147385 -19.28518295 -5.305127144 2.112216412e-38
-15.9906311 -19.35786057 -5.307391167 2.112216412e-38
-15.9119606 -19.42109299 -5.30714941 2.112216412e-38
-15.82159996 -19.46994209 -5.303074837 2.112216412e-38
-15.76151848 -19.55611229 -5.309244156 2.112216412e-38
-15.6586504 -19.58911896 -5.301074028 2.112216412e-38
-15.59058189 -19.66555405 -5.30475378 2.112216412e-38
-15.42121887 -19.77647018 -5.301057339 2.112216412e-38
-15.36116695 -19.86360741 -5.307819366 2.112216412e-38
-15.04661179 -20.11713982 -5.310223103 2.112216412e-38
-14.93733597 -20.1393261 -5.300186157 2.112216412e-38
-14.79954433 -20.29251671 -5.309014797 2.112216412e-38
-14.70347118 -20.33195114 -5.303824902 2.112216412e-38
-14.61555099 -20.38243675 -5.301625729 2.112216412e-38
-14.54154301 -20.45232964 -5.304558277 2.112216412e-38
-14.45707798 -20.50761032 -5.303779125 2.112216412e-38
-14.12607002 -20.73828316 -5.304003716 2.112216412e-38
-13.8836031 -20.920187 -5.307314396 2.112216412e-38
-13.81089211 -20.99328995 -5.3117342 2.112216412e-38
-13.7118578 -21.02636337 -5.306112766 2.112216412e-38
-13.44809914 -21.17572594 -5.302489281 2.112216412e-38
-13.37231827 -21.24463654 -5.306240082 2.112216412e-38
-13.28802681 -21.30016136 -5.306724548 2.112216412e-38
-13.10137749 -21.38188744 -5.300670624 2.112216412e-38
-13.03797245 -21.47167778 -5.309894562 2.112216412e-38
-12.7561264 -21.59024048 -5.300783634 2.112216412e-38
-12.59606266 -21.71606064 -5.306639194 2.112216412e-38
-12.45317173 -21.66996765 -5.283098698 2.112216412e-38
-12.34453869 -21.68224716 -5.273949623 2.112216412e-38
-12.0019207 -21.68450928 -5.238911629 2.112216412e-38
-11.86840248 -21.64822197 -5.218575478 2.112216412e-38
-11.7811203 -21.695467 -5.218505383 2.121399961e-38
-11.65323734 -21.667202 -5.200397968 2.121399961e-38
-11.54726505 -21.67862701 -5.19195652 2.121399961e-38
-11.44271851 -21.69206047 -5.18411541 2.121399961e-38
-11.32986546 -21.68899536 -5.172455311 2.121399961e-38
-11.23285484 -21.71556854 -5.167981148 2.121399961e-38
-11.11982918 -21.71047783 -5.156090736 2.121399961e-38
-10.81751728 -21.76316261 -5.137244701 2.121399961e-38
-10.71286869 -21.77177238 -5.129069328 2.121399961e-38
-10.63774681 -21.84033012 -5.13510561 2.121399961e-38
-10.54412556 -21.87092209 -5.132289886 2.121399961e-38
-10.35635853 -21.93052483 -5.126572609 2.121399961e-38
-10.19710255 -22.05069733 -5.135332584 2.121399961e-38
-10.11747837 -22.11140442 -5.139956474 2.121399961e-38
-9.902957916 -22.11071968 -5.121123314 2.121399961e-38
-9.588191032 -22.11918259 -5.095929623 2.121399961e-38
-9.486904144 -22.12887383 -5.089334965 2.121399961e-38
-9.380661964 -22.12623596 -5.080013752 2.121399961e-38
-9.079431534 -22.1554718 -5.061220169 2.121399961e-38
-8.986665726 -22.1828289 -5.059172153 2.121399961e-38
-8.761593819 -22.13702011 -5.03249979 2.121399961e-38
-8.672941208 -22.17309952 -5.032734871 2.121399961e-38
-8.5460186 -22.11022568 -5.010625362 2.121399961e-38
-8.458156586 -22.14723015 -5.011265755 2.121399961e-38
-8.195153236 -21.72016144 -4.907148361 2.130583511e-38
-8.109247208 -21.75687027 -4.908031464 2.130583511e-38
-7.920581818 -21.51458359 -4.846152782 2.130583511e-38
-7.817173004 -21.49987221 -4.835718632 2.130583511e-38
-7.72769022 -21.52280807 -4.833848476 2.130583511e-38
-7.55970192 -21.59937096 -4.837239265 2.130583511e-38
-7.294059753 -21.96699333 -4.89266777 2.130583511e-38
-7.243472099 -22.11146164 -4.918319702 2.130583511e-38
-6.991659164 -22.24609947 -4.929152489 2.130583511e-38
-6.912470341 -22.30723953 -4.93650198 2.130583511e-38
-6.827689648 -22.3510437 -4.940081596 2.130583511e-38
-6.771972656 -22.49187088 -4.965150356 2.130583511e-38
-6.924713135 -23.68738174 -5.216605186 2.121399961e-38
-6.842229366 -24.12368584 -5.300406456 2.112216412e-38
-6.755403042 -24.18753242 -5.30842495 2.112216412e-38
-6.54534626 -24.18429375 -5.295992374 2.112216412e-38
-6.442828178 -24.19067764 -5.291676521 2.112216412e-38
-6.356253147 -24.25727463 -5.300612926 2.112216412e-38
-6.157413006 -24.29338455 -5.297512531 2.112216412e-38
-6.066192627 -24.34398651 -5.303186417 2.112216412e-38
-5.957087517 -24.32248116 -5.293242455 2.112216412e-38
-5.865597248 -24.37254715 -5.298963547 2.112216412e-38
-5.764217854 -24.38167 -5.295867443 2.112216412e-38
-5.562559128 -24.40332603 -5.2906847 2.112216412e-38
-5.373968601 -24.48276901 -5.298371315 2.112216412e-38
-5.268624306 -24.47219467 -5.291456223 2.112216412e-38
-5.178666592 -24.53325844 -5.300116062 2.112216412e-38
-5.079554558 -24.55173302 -5.299651623 2.112216412e-38
-4.782716274 -24.60965919 -5.299318314 2.112216412e-38
-4.668533325 -24.54827499 -5.282016754 2.112216412e-38
-4.583805561 -24.64209557 -5.298197269 2.112216412e-38
-4.480754852 -24.63851357 -5.293510914 2.112216412e-38
-4.383816242 -24.66882324 -5.296194077 2.112216412e-38
-4.191752434 -24.74067688 -5.304213047 2.112216412e-38
-4.081782341 -24.6939373 -5.290631771 2.112216412e-38
-3.985436201 -24.7284832 -5.294557571 2.112216412e-38
-3.889289856 -24.76527214 -5.299045086 2.112216412e-38
-3.789335251 -24.77832985 -5.298536301 2.112216412e-38
-3.689337492 -24.7909565 -5.29802084 2.112216412e-38
-3.484439373 -24.78094292 -5.289723396 2.112216412e-38
-3.289974451 -24.84492493 -5.297564507 2.112216412e-38
-3.184937477 -24.81799316 -5.289048672 2.112216412e-38
-2.987545252 -24.86145592 -5.293022156 2.112216412e-38
-2.888687611 -24.8828373 -5.295058727 2.112216412e-38
-2.586273432 -24.89533424 -5.290696144 2.112216412e-38
-2.386233807 -24.91731262 -5.291119099 2.112216412e-38
-2.287619591 -24.94389534 -5.294768333 2.112216412e-38
-2.086668253 -24.95746803 -5.293917656 2.112216412e-38
-1.985471964 -24.95505333 -5.291668892 2.112216412e-38
-1.786046028 -24.98797607 -5.295433521 2.112216412e-38
-1.584481478 -24.99192619 -5.293399334 2.112216412e-38
-1.484164357 -25.00075531 -5.293963432 2.112216412e-38
-1.282342672 -24.99690628 -5.290793896 2.112216412e-38
-1.182601929 -25.01791954 -5.294193268 2.112216412e-38
-1.081717372 -25.01543808 -5.292705059 2.112216412e-38
-0.9810408354 -25.01675987 -5.292106628 2.112216412e-38
-0.4291372299 -15.81076813 -3.343307495 2.194868358e-38
-0.3658024669 -15.82239437 -3.345429659 2.194868358e-38
-0.3027906716 -15.85483551 -3.352004051 2.194868358e-38
-0.2768236995 -25.03885651 -5.293035984 2.112216412e-38
-0.1763137579 -25.06128693 -5.297586441 2.112216412e-38
0.02513905987 -25.02635765 -5.290073395 2.112216412e-38
0.6286179423 -25.01555443 -5.289456844 2.112216412e-38
0.7299791574 -25.04017067 -5.295239449 2.112216412e-38
0.9300371408 -25.00019836 -5.288196087 2.112216412e-38
1.031903028 -25.02965546 -5.295262814 2.112216412e-38
1.232454658 -25.00749969 -5.292500019 2.112216412e-38
1.433765769 -25.00195503 -5.293595791 2.112216412e-38
1.534784317 -25.00441742 -5.295381546 2.112216412e-38
1.635405779 -24.99989319 -5.295772076 2.112216412e-38
1.734063387 -24.96661377 -5.290156364 2.112216412e-38
1.991191983 -25.68019104 -5.444571495 2.112216412e-38
2.401700497 -25.62197495 -5.439714432 2.112216412e-38
2.506492615 -25.63059807 -5.443639755 2.112216412e-38
2.610008955 -25.62528992 -5.44469595 2.112216412e-38
2.711721182 -25.60250664 -5.442129135 2.112216412e-38
2.916172743 -25.56846809 -5.43970108 2.112216412e-38
3.123112202 -25.55621147 -5.442259789 2.112216412e-38
3.430385113 -25.5114994 -5.441152573 2.112216412e-38
3.532984495 -25.49801254 -5.441261292 2.112216412e-38
3.636318207 -25.48961067 -5.442543507 2.112216412e-38
3.741710186 -25.49494553 -5.446850777 2.112216412e-38
3.949089289 -25.48027802 -5.450325012 2.112216412e-38
4.0510149 -25.46129036 -5.449701786 2.112216412e-38
4.356198788 -25.40139389 -5.447731018 2.112216412e-38
4.458921909 -25.38733292 -5.448515892 2.112216412e-38
4.556790829 -25.34609985 -5.443553925 2.112216412e-38
4.763220787 -25.32355499 -5.446761131 2.112216412e-38
4.858251572 -25.26915169 -5.439216614 2.112216412e-38
5.063404083 -25.24001312 -5.441530704 2.112216412e-38
5.172243595 -25.25566673 -5.449344158 2.112216412e-38
5.270555496 -25.21948051 -5.446064472 2.112216412e-38
5.472817421 -25.17477798 -5.445737362 2.112216412e-38
5.874770641 -25.07444 -5.443764687 2.112216412e-38
5.980489731 -25.07144165 -5.448289871 2.112216412e-38
6.280099869 -24.98830223 -5.446285725 2.112216412e-38
6.369143963 -24.91845322 -5.436597824 2.112216412e-38
6.585314751 -24.92717361 -5.449875355 2.112216412e-38
6.779890537 -24.85278511 -5.445353985 2.112216412e-38
6.882776737 -24.83625603 -5.447750568 2.112216412e-38
6.983516216 -24.8117733 -5.448494911 2.112216412e-38
7.175893784 -24.73114395 -5.443281174 2.112216412e-38
7.271557331 -24.68951797 -5.44051075 2.112216412e-38
7.377531052 -24.68280602 -5.445522308 2.112216412e-38
7.472140312 -24.63791466 -5.442201614 2.112216412e-38
7.672637463 -24.58554649 -5.444084167 2.112216412e-38
7.861275196 -24.49569893 -5.438009262 2.112216412e-38
8.171526909 -24.44524956 -5.448290825 2.112216412e-38
8.269129753 -24.41046143 -5.447902679 2.112216412e-38
8.361185074 -24.35959053 -5.44400692 2.112216412e-38
8.476072311 -24.37474823 -5.454963684 2.112216412e-38
8.564938545 -24.31476784 -5.449203491 2.112216412e-38
8.653625488 -24.25497437 -5.443553925 2.112216412e-38
8.739587784 -24.18823051 -5.436415672 2.112216412e-38
8.845432281 -24.1765995 -5.44175005 2.112216412e-38
8.94584465 -24.14975548 -5.443757534 2.112216412e-38
9.044909477 -24.1190815 -5.44499588 2.112216412e-38
9.337647438 -24.01479912 -5.446479797 2.112216412e-38
9.435700417 -23.98106575 -5.447388649 2.112216412e-38
9.522468567 -23.91896629 -5.441932678 2.112216412e-38
9.714413643 -23.84150124 -5.441902637 2.112216412e-38
9.915143013 -23.78511047 -5.447052002 2.112216412e-38
10.19338417 -23.64559364 -5.442858696 2.112216412e-38
10.29215431 -23.61314583 -5.444869518 2.112216412e-38
10.39127827 -23.58133316 -5.447123051 2.112216412e-38
10.48261642 -23.53176308 -5.445362091 2.112216412e-38
10.5860815 -23.50929642 -5.449966908 2.112216412e-38
10.67376041 -23.4516983 -5.446516991 2.112216412e-38
10.76428032 -23.40062141 -5.44466114 2.112216412e-38
10.95424557 -23.31748962 -5.445622444 2.112216412e-38
11.04605007 -23.26982307 -5.444827557 2.112216412e-38
11.1378231 -23.2217865 -5.444024086 2.112216412e-38
11.33082867 -23.14504433 -5.447211742 2.112216412e-38
11.4249649 -23.10172844 -5.44778204 2.112216412e-38
11.52929115 -23.07872009 -5.453241825 2.112216412e-38
11.58564663 -22.96019173 -5.43619585 2.112216412e-38
11.71318245 -22.9827404 -5.452640057 2.112216412e-38
11.87995338 -22.85392189 -5.444562912 2.112216412e-38
11.96528053 -22.79371452 -5.441633701 2.112216412e-38
12.16056633 -22.71996307 -5.447193146 2.112216412e-38
12.25484943 -22.67651749 -5.448545456 2.112216412e-38
12.33827591 -22.61310005 -5.445179462 2.112216412e-38
12.42253304 -22.5514164 -5.442308426 2.112216412e-38
12.52177143 -22.51690102 -5.446083069 2.112216412e-38
12.60950756 -22.46161079 -5.444926262 2.112216412e-38
12.69846249 -22.40857124 -5.444398403 2.112216412e-38
12.79019833 -22.36040306 -5.445144176 2.112216412e-38
12.87430573 -22.29897881 -5.442744255 2.112216412e-38
12.97849941 -22.27218819 -5.448895931 2.112216412e-38
13.06954193 -22.22257042 -5.449568272 2.112216412e-38
13.13001633 -22.12141418 -5.437661648 2.112216412e-38
13.34845638 -22.08298874 -5.454421043 2.112216412e-38
13.67719078 -21.82621193 -5.444620132 2.112216412e-38
13.76859379 -21.77699471 -5.446107388 2.112216412e-38
13.8426857 -21.70057869 -5.440867901 2.112216412e-38
13.93568802 -21.65390205 -5.443165779 2.112216412e-38
14.0282402 -21.60634613 -5.445343971 2.112216412e-38
14.1145649 -21.54915047 -5.445185184 2.112216412e-38
14.20254612 -21.49444962 -5.445745945 2.112216412e-38
14.28742886 -21.43507385 -5.445210457 2.112216412e-38
14.35147381 -21.34472656 -5.436872005 2.112216412e-38
14.7226572 -21.15411186 -5.447920799 2.112216412e-38
14.80909061 -21.09691429 -5.448477268 2.112216412e-38
14.89718056 -21.04201126 -5.44972086 2.112216412e-38
15.07112885 -20.92888641 -5.451626778 2.112216412e-38
15.14694309 -20.8568306 -5.448674679 2.112216412e-38
15.21220207 -20.77057266 -5.442071915 2.112216412e-38
15.31632805 -20.73736 -5.449456692 2.112216412e-38
15.37809944 -20.64679909 -5.441859722 2.112216412e-38
15.55469418 -20.53713799 -5.445742607 2.112216412e-38
15.62723827 -20.46151733 -5.442302704 2.112216412e-38
15.72772408 -20.42234421 -5.448658943 2.112216412e-38
15.79928875 -20.34555626 -5.445073128 2.112216412e-38
15.88198566 -20.28320885 -5.445430756 2.112216412e-38
15.97017288 -20.22779083 -5.447742462 2.112216412e-38
16.02961731 -20.13609314 -5.440358639 2.112216412e-38
16.36907196 -19.89735985 -5.44627285 2.112216412e-38
16.43224525 -19.81126976 -5.440745831 2.112216412e-38
16.58470726 -19.6710701 -5.438686848 2.112216412e-38
16.76241875 -19.56052399 -5.445210457 2.112216412e-38
16.84313965 -19.49557495 -5.445933819 2.112216412e-38
17.00392151 -19.36471558 -5.447395802 2.112216412e-38
17.13321304 -19.19838715 -5.439189911 2.112216412e-38
17.22491646 -19.14567566 -5.443826675 2.112216412e-38
17.30527306 -19.08017349 -5.444937229 2.112216412e-38
17.45214653 -18.93396759 -5.44307518 2.112216412e-38
17.69400406 -18.73780251 -5.447632313 2.112216412e-38
17.75759697 -18.65435028 -5.444078922 2.112216412e-38
17.80442047 -18.55360603 -5.435521603 2.112216412e-38
17.83847427 -18.44015121 -5.423245907 2.112216412e-38
17.88534164 -17.75997353 -5.32787466 2.112216412e-38
17.88641167 -17.47769356 -5.2861619 2.112216412e-38
18.05653763 -17.36235428 -5.295016766 2.112216412e-38
18.25328445 -17.1327076 -5.291726589 2.112216412e-38
18.31079292 -17.04875374 -5.288491249 2.112216412e-38
18.47533035 -16.9267025 -5.296538353 2.112216412e-38
18.52811813 -16.83857155 -5.2922225 2.112216412e-38
18.68581963 -16.70956802 -5.298728466 2.112216412e-38
18.80874062 -16.54927254 -5.295676708 2.112216412e-38
18.8683033 -16.46757507 -5.293762207 2.112216412e-38
19.0004921 -16.31568527 -5.293878078 2.112216412e-38
19.06409454 -16.23761368 -5.293370724 2.112216412e-38
19.1878109 -16.07858467 -5.291644573 2.112216412e-38
19.2473526 -15.99723148 -5.290297985 2.112216412e-38
19.49304008 -15.80787086 -5.305041313 2.112216412e-38
19.55311203 -15.72671604 -5.304135323 2.112216412e-38
19.61903381 -15.65026569 -5.304900646 2.112216412e-38
19.72042274 -15.60184288 -5.315324783 2.112216412e-38
19.83672714 -15.43617153 -5.313044071 2.112216412e-38
20.03974152 -15.20972252 -5.317903042 2.112216412e-38
20.28649521 -15.01490593 -5.334939003 2.112216412e-38
20.32445717 -14.91691113 -5.329116344 2.112216412e-38
20.40613556 -14.85100746 -5.334833145 2.112216412e-38
20.46660614 -14.76952648 -5.335076809 2.112216412e-38
20.66815376 -14.53917313 -5.341518879 2.112216412e-38
20.75237083 -14.4740963 -5.348195076 2.112216412e-38
20.84510612 -14.29101849 -5.342319489 2.112216412e-38
20.91907692 -14.21847534 -5.346588612 2.112216412e-38
20.96720123 -14.12824535 -5.344336987 2.112216412e-38
21.09345818 -13.96806145 -5.347716331 2.112216412e-38
21.19092941 -13.78880405 -5.344148159 2.112216412e-38
21.27149963 -13.7198801 -5.350511551 2.112216412e-38
21.3737545 -13.54372787 -5.348670959 2.112216412e-38
21.43005371 -13.45898724 -5.349175453 2.112216412e-38
21.50680542 -13.3869381 -5.354857445 2.112216412e-38
21.86104965 -13.24435329 -5.40289402 2.112216412e-38
22.00610733 -13.21159267 -5.425573826 2.112216412e-38
22.22125816 -13.21953678 -5.465474606 2.103032862e-38
22.38838959 -13.19739819 -5.493486404 2.103032862e-38
22.49505806 -13.13869762 -5.506654739 2.103032862e-38
22.5225563 -13.03363037 -5.500516891 2.103032862e-38
22.68479919 -12.7648344 -5.502142906 2.103032862e-38
22.76831627 -12.57189655 -5.49770546 2.103032862e-38
22.86381721 -12.50495625 -5.508581638 2.103032862e-38
22.87005424 -12.38918591 -5.498040676 2.103032862e-38
22.93003845 -12.30270767 -5.500526905 2.103032862e-38
22.95448685 -12.19724655 -5.49458456 2.103032862e-38
23.0184269 -12.11282063 -5.498188972 2.103032862e-38
23.06121063 -12.01720524 -5.496826649 2.103032862e-38
23.11731911 -11.92850685 -5.498725414 2.103032862e-38
23.22580338 -11.74903107 -5.501881599 2.103032862e-38
23.33371544 -11.45230389 -5.494327068 2.103032862e-38
23.43230438 -11.26784039 -5.496030331 2.103032862e-38
23.49107361 -11.18004894 -5.499228954 2.103032862e-38
23.54590607 -11.09028244 -5.501583576 2.103032862e-38
23.61288261 -11.00606632 -5.506852627 2.103032862e-38
23.66533089 -10.79976559 -5.498655319 2.103032862e-38
23.71579361 -10.70781326 -5.500335693 2.103032862e-38
23.81966591 -10.52499676 -5.504621983 2.103032862e-38
23.83173943 -10.41602039 -5.497691154 2.103032862e-38
23.9255352 -10.342659 -5.509690762 2.103032862e-38
23.95454788 -10.24110889 -5.506845951 2.103032862e-38
23.95655251 -10.12826157 -5.497905254 2.103032862e-38
24.01213264 -10.03816128 -5.501352787 2.103032862e-38
24.02748871 -9.931308746 -5.495681763 2.103032862e-38
24.09126663 -9.844470024 -5.501173019 2.103032862e-38
24.20922089 -9.553603172 -5.501396179 2.103032862e-38
24.28561783 -9.358812332 -5.501480103 2.103032862e-38
24.35085297 -9.271695137 -5.507769585 2.103032862e-38
24.36190796 -9.163941383 -5.501894951 2.103032862e-38
24.49464035 -8.766943932 -5.499320507 2.103032862e-38
24.58345413 -8.576389313 -5.503599644 2.103032862e-38
24.5958271 -8.469963074 -5.498703003 2.103032862e-38
24.65447426 -8.269028664 -5.496773243 2.103032862e-38
24.75614738 -8.082306862 -5.504776955 2.103032862e-38
24.75634193 -7.972383976 -5.497647285 2.103032862e-38
24.81138039 -7.77050066 -5.495818138 2.103032862e-38
24.8679409 -7.678586483 -5.501465797 2.103032862e-38
24.8910408 -7.576254368 -5.499794483 2.103032862e-38
24.96929741 -7.381255627 -5.503795624 2.103032862e-38
24.98916054 -7.27802372 -5.501679897 2.103032862e-38
25.05556679 -7.188220978 -5.509891987 2.103032862e-38
25.05358124 -7.078786373 -5.503155708 2.103032862e-38
25.07143021 -6.975106716 -5.500871658 2.103032862e-38
25.09069061 -6.871918201 -5.498991013 2.103032862e-38
25.08011055 -6.760762691 -5.490672588 2.103032862e-38
25.12576294 -6.664840221 -5.494755745 2.103032862e-38
25.18980026 -6.573542595 -5.50293684 2.103032862e-38
25.20418167 -6.469200611 -5.500353813 2.103032862e-38
