# .PCD v0.7 - Point Cloud Data file format
VERSION 0.7
FIELDS x y z rgb
SIZE 4 4 4 4
TYPE F F F F
COUNT 1 1 1 1
WIDTH 890
HEIGHT 1
VIEWPOINT 0 0 0 1 0 0 0
POINTS 890
DATA ascii
33.23547745 3.283950567 -5.501847267 2.047931564e-38
33.20899963 3.416189432 -5.499691963 2.047931564e-38
33.19649887 3.684850931 -5.50242424 2.047931564e-38
33.12620544 3.946903467 -5.495744705 2.047931564e-38
33.09589767 4.213419437 -5.496198654 2.047931564e-38
33.10239792 4.349559784 -5.500137329 2.047931564e-38
33.0610466 4.479385853 -5.496207714 2.047931564e-38
33.05207443 4.749088764 -5.500888348 2.047931564e-38
33.02588272 4.880909443 -5.499750614 2.047931564e-38
32.98479462 5.01041317 -5.496218681 2.047931564e-38
32.97489929 5.144619465 -5.497972012 2.047931564e-38
32.95914841 5.413939476 -5.502425671 2.047931564e-38
32.91902924 5.543321609 -5.499382019 2.047931564e-38
32.89730835 5.675758839 -5.499525547 2.047931564e-38
32.74047089 6.192491531 -5.489338398 2.047931564e-38
32.15242004 6.215178013 -5.394827366 2.047931564e-38
31.76928902 6.672731876 -5.347843647 2.057115114e-38
31.69566536 7.057407379 -5.349388599 2.057115114e-38
31.65566254 7.18218565 -5.347466469 2.057115114e-38
31.6124115 7.306101322 -5.345077038 2.057115114e-38
31.55130196 7.559715748 -5.344849586 2.057115114e-38
31.55561447 7.695008278 -5.350777626 2.057115114e-38
31.37410736 8.187391281 -5.341635227 2.057115114e-38
31.3788681 8.323498726 -5.348098278 2.057115114e-38
31.29362488 8.706166267 -5.35107708 2.057115114e-38
31.22185898 8.82157135 -5.344829082 2.057115114e-38
31.11486435 9.334111214 -5.351510525 2.057115114e-38
31.04256058 9.448601723 -5.345567226 2.057115114e-38
31.04361534 9.585442543 -5.352339745 2.057115114e-38
30.96291924 9.833895683 -5.351887226 2.057115114e-38
30.92835808 9.959950447 -5.352790356 2.057115114e-38
30.83340263 10.06635475 -5.343316078 2.057115114e-38
30.81774902 10.19852543 -5.34766531 2.057115114e-38
30.78983879 10.32679367 -5.349983215 2.057115114e-38
30.67741203 10.42647934 -5.337687016 2.057115114e-38
29.8418293 10.41086102 -5.206697464 2.057115114e-38
29.48034668 10.41788292 -5.150892735 2.066298664e-38
29.0880146 10.41096115 -5.089614391 2.066298664e-38
28.7441597 10.41841793 -5.036736012 2.066298664e-38
28.37960815 10.41555691 -4.980155468 2.075482213e-38
27.99521446 10.40237713 -4.919998646 2.075482213e-38
27.37454987 10.42297173 -4.825491905 2.075482213e-38
26.71272469 10.4176445 -4.72343874 2.084665763e-38
26.38927841 10.41391754 -4.673612595 2.084665763e-38
26.08501053 10.41522884 -4.627103329 2.093849312e-38
25.80034637 10.42200089 -4.584002018 2.093849312e-38
25.20599937 10.41842651 -4.493143082 2.093849312e-38
24.89840889 10.40867043 -4.445734978 2.103032862e-38
24.6348896 10.41503334 -4.406120777 2.103032862e-38
24.3830471 10.42430973 -4.368539333 2.103032862e-38
23.85062027 10.42427731 -4.288025856 2.103032862e-38
23.59566498 10.42601299 -4.249688625 2.112216412e-38
23.31511307 10.41426373 -4.206665039 2.112216412e-38
22.81484413 10.41164684 -4.131374836 2.112216412e-38
22.57229996 10.41079807 -4.09499979 2.121399961e-38
22.34877777 10.41685295 -4.062012672 2.121399961e-38
22.11465836 10.41615295 -4.027039051 2.121399961e-38
21.66741371 10.41915703 -3.960719824 2.121399961e-38
21.24209785 10.42572594 -3.898170233 2.130583511e-38
20.00708199 10.42568207 -3.716605663 2.13976706e-38
19.80917931 10.42402363 -3.687595844 2.13976706e-38
19.62663269 10.42892551 -3.661389828 2.13976706e-38
19.41201591 10.41517353 -3.629132986 2.13976706e-38
19.24061394 10.42303944 -3.604893923 2.13976706e-38
18.89085388 10.43088818 -3.554962635 2.14895061e-38
18.6801281 10.41272736 -3.523151636 2.14895061e-38
18.4997139 10.40985489 -3.496989965 2.14895061e-38
17.98857498 10.40983868 -3.423853874 2.14895061e-38
17.67556953 10.41929054 -3.380112886 2.15813416e-38
17.34619331 10.4139576 -3.333029985 2.15813416e-38
17.15022469 10.3903265 -3.303375244 2.15813416e-38
17.04032135 10.41761112 -3.290245056 2.15813416e-38
16.89054298 10.41955853 -3.26938653 2.15813416e-38
16.58638382 10.41694736 -3.226619005 2.167317709e-38
16.43867874 10.41655827 -3.206005335 2.167317709e-38
16.29175186 10.41547203 -3.185487986 2.167317709e-38
16.16215134 10.42439747 -3.168318987 2.167317709e-38
15.88284206 10.42600727 -3.129896402 2.167317709e-38
15.60903358 10.42679405 -3.092358828 2.167317709e-38
15.33134651 10.42053413 -3.053844929 2.176501259e-38
15.06746197 10.4192543 -3.017871141 2.176501259e-38
14.93248081 10.41489697 -2.999197483 2.176501259e-38
14.74068356 10.45836735 -2.977490902 2.176501259e-38
14.69016266 10.51147938 -2.975773811 2.176501259e-38
14.57186413 10.6948595 -2.977720976 2.176501259e-38
14.49585438 10.72899246 -2.970977545 2.176501259e-38
14.48320103 10.81008148 -2.977282763 2.176501259e-38
24.30674553 18.29475975 -5.011746883 2.066298664e-38
24.09139061 18.59197807 -5.013209343 2.066298664e-38
23.91831017 18.76716423 -5.008431911 2.066298664e-38
23.875 18.88871574 -5.015218735 2.066298664e-38
23.7337265 19.08919525 -5.017621517 2.066298664e-38
23.64542389 19.17524338 -5.015211582 2.066298664e-38
23.56024361 19.26365852 -5.013526917 2.066298664e-38
23.50642967 19.37785149 -5.018611908 2.066298664e-38
23.41082954 19.45764732 -5.014861107 2.066298664e-38
23.33423042 19.55312538 -5.015253067 2.066298664e-38
23.2555027 19.64681053 -5.015264034 2.066298664e-38
23.06388664 19.80489731 -5.008119583 2.066298664e-38
22.85814476 20.11219406 -5.015750885 2.066298664e-38
22.76612854 20.19419479 -5.013334751 2.066298664e-38
22.69430542 20.29406738 -5.015441418 2.066298664e-38
22.62285233 20.39443207 -5.017727852 2.066298664e-38
22.51176834 20.45895195 -5.011293888 2.066298664e-38
22.32182503 20.61642265 -5.005745411 2.066298664e-38
14.10859394 13.24244404 -3.187670231 2.167317709e-38
14.00829411 13.25463104 -3.177030087 2.167317709e-38
13.77669811 13.24703598 -3.148541451 2.167317709e-38
13.5563736 13.24656868 -3.122430801 2.167317709e-38
13.41417885 13.21346378 -3.101897478 2.167317709e-38
13.20217896 13.21544266 -3.07733345 2.167317709e-38
13.00521564 13.2293396 -3.056121111 2.176501259e-38
12.81624603 13.24850655 -3.036670685 2.176501259e-38
12.70734406 13.24204731 -3.023437262 2.176501259e-38
12.59940624 13.23566151 -3.010383129 2.176501259e-38
12.41477299 13.25343704 -2.991637707 2.176501259e-38
12.31533146 13.25364494 -2.980488539 2.176501259e-38
12.29016018 13.33364391 -2.987344027 2.176501259e-38
12.30714512 13.46025944 -3.004611969 2.176501259e-38
12.30547714 13.67763233 -3.030937433 2.176501259e-38
12.30426884 13.78736687 -3.044291019 2.176501259e-38
12.29629517 13.89044094 -3.05608511 2.176501259e-38
12.27828503 13.9829483 -3.065560102 2.167317709e-38
19.81254578 23.11975861 -5.015924931 2.066298664e-38
19.62985611 23.28284454 -5.016904354 2.066298664e-38
19.44621277 23.44496536 -5.017984867 2.066298664e-38
19.24974632 23.59155273 -5.016067982 2.066298664e-38
19.14745331 23.65971565 -5.014157772 2.066298664e-38
19.07653809 23.76686096 -5.020570278 2.066298664e-38
18.98605347 23.84988976 -5.021946907 2.066298664e-38
18.77772713 23.98136139 -5.017678261 2.066298664e-38
18.4937458 24.21469498 -5.019465923 2.066298664e-38
18.37656593 24.26283073 -5.014091969 2.066298664e-38
18.27244377 24.32794762 -5.012324333 2.066298664e-38
18.06627655 24.46053886 -5.00955677 2.066298664e-38
18.00278473 24.58073997 -5.019311428 2.066298664e-38
17.79612923 24.71294212 -5.016930103 2.066298664e-38
17.68701553 24.77079582 -5.014199734 2.066298664e-38
17.59658432 24.85483932 -5.016849518 2.066298664e-38
13.96859455 20.59597206 -4.099709511 2.121399961e-38
13.48315239 20.58513641 -4.053866386 2.121399961e-38
13.34884644 20.55991554 -4.038320541 2.121399961e-38
13.23863411 20.57076645 -4.029931068 2.121399961e-38
12.99884701 20.55953979 -4.007148266 2.121399961e-38
12.89799595 20.58272743 -4.001531124 2.121399961e-38
12.7989893 20.60840416 -3.996495008 2.121399961e-38
12.53004265 20.54203606 -3.963934422 2.121399961e-38
12.34718418 20.61321068 -3.958378315 2.121399961e-38
12.23590946 20.61496162 -3.949254513 2.121399961e-38
12.18905258 20.72540474 -3.960996628 2.121399961e-38
12.18661785 20.91319275 -3.987498045 2.121399961e-38
12.18764019 21.10959816 -4.015534401 2.121399961e-38
14.80320072 26.61937714 -5.017726421 2.066298664e-38
14.68906021 26.66592026 -5.015329361 2.066298664e-38
14.57409573 26.71076584 -5.012701988 2.066298664e-38
14.37907124 26.86479568 -5.019750595 2.066298664e-38
14.24410343 26.87171936 -5.010305405 2.066298664e-38
14.14331341 26.94278717 -5.012912273 2.066298664e-38
14.04824352 27.02508545 -5.017678261 2.066298664e-38
13.92704487 27.05716324 -5.013198853 2.066298664e-38
13.81922531 27.11502457 -5.013584614 2.066298664e-38
13.59932041 27.22234726 -5.013050079 2.066298664e-38
13.48980331 27.27685356 -5.013061047 2.066298664e-38
13.38445854 27.33986282 -5.014712334 2.066298664e-38
12.95191193 27.570261 -5.018119335 2.066298664e-38
12.72124481 27.6548214 -5.014732838 2.066298664e-38
12.49089432 27.73929214 -5.011676788 2.066298664e-38
12.38433552 27.80063057 -5.01372385 2.066298664e-38
12.27627945 27.85881805 -5.015276432 2.066298664e-38
12.15643597 27.89014626 -5.012078285 2.066298664e-38
12.05739403 27.9693222 -5.01755619 2.066298664e-38
11.94403076 28.01565361 -5.017213345 2.066298664e-38
11.7059412 28.08086586 -5.011875629 2.066298664e-38
11.60813713 28.16449356 -5.018433094 2.066298664e-38
11.48430157 28.18514252 -5.013844013 2.066298664e-38
11.38579464 28.26803207 -5.0204072 2.066298664e-38
11.27010059 28.3086338 -5.019530773 2.066298664e-38
10.79808044 28.44565201 -5.012388706 2.066298664e-38
10.694561 28.5179348 -5.017508984 2.066298664e-38
10.57757282 28.5546093 -5.016440392 2.066298664e-38
10.44749165 28.5553093 -5.009143829 2.066298664e-38
10.34931087 28.64330673 -5.017241955 2.066298664e-38
10.23007774 28.67345047 -5.015277863 2.066298664e-38
10.12027931 28.73006821 -5.018024921 2.066298664e-38
9.991430283 28.73234558 -5.011366367 2.066298664e-38
9.8766222 28.77457047 -5.01176548 2.066298664e-38
9.766460419 28.83049011 -5.014627457 2.066298664e-38
9.422470093 28.95969009 -5.016969204 2.066298664e-38
9.297423363 28.97069168 -5.012361526 2.066298664e-38
8.950455666 29.0907402 -5.014088631 2.066298664e-38
8.712304115 29.14842987 -5.011798859 2.066298664e-38
8.366298676 29.27290344 -5.015487671 2.066298664e-38
3.722518206 13.22570992 -2.263450146 2.213235457e-38
3.66042304 13.20845795 -2.257958412 2.213235457e-38
3.547257662 13.21193218 -2.253607273 2.213235457e-38
3.484810591 13.19085217 -2.247610331 2.213235457e-38
3.430575371 13.20021057 -2.246833324 2.213235457e-38
3.370537996 13.18672657 -2.242213249 2.213235457e-38
3.26779294 13.22710133 -2.244538546 2.213235457e-38
3.208069801 13.21328449 -2.23998785 2.213235457e-38
3.141865969 13.17129612 -2.230710506 2.213235457e-38
3.103767395 13.24729156 -2.241450548 2.213235457e-38
3.038709879 13.20850563 -2.232796669 2.213235457e-38
2.984791279 13.21705914 -2.232193947 2.213235457e-38
2.933333158 13.23660183 -2.233495474 2.213235457e-38
2.871608496 13.20925713 -2.226918697 2.213235457e-38
2.815160513 13.20508385 -2.22428751 2.213235457e-38
2.75734663 13.19374943 -2.220486879 2.213235457e-38
2.599561691 13.23384953 -2.221799374 2.213235457e-38
2.481765032 13.19417667 -2.211719513 2.213235457e-38
2.380815744 13.24269485 -2.216567278 2.213235457e-38
2.320279837 13.21067142 -2.209630728 2.222419007e-38
2.258423567 13.16898632 -2.201123238 2.222419007e-38
2.15891099 13.22615242 -2.207705259 2.222419007e-38
2.107818127 13.24784946 -2.20989871 2.222419007e-38
1.937957644 13.20456886 -2.198616505 2.222419007e-38
1.833164096 13.23010063 -2.200342178 2.222419007e-38
1.776875019 13.21435547 -2.196514606 2.222419007e-38
1.758483648 13.48787785 -2.240764856 2.213235457e-38
1.760241747 13.93822479 -2.314437151 2.213235457e-38
2.428469658 20.5578289 -3.410238743 2.14895061e-38
2.260639191 20.55414772 -3.406495094 2.14895061e-38
0.9145336151 8.634412766 -1.430382013 2.259153205e-38
0.8711587787 8.553073883 -1.416325808 2.259153205e-38
0.8360922933 8.549576759 -1.415168285 2.259153205e-38
0.8023771644 8.559928894 -1.416337132 2.259153205e-38
0.7677650452 8.560873985 -1.415970802 2.259153205e-38
0.7339725494 8.571196556 -1.417179108 2.259153205e-38
0.7011457682 8.594096184 -1.420498848 2.259153205e-38
0.6672509313 8.605344772 -1.42189157 2.259153205e-38
0.6354650259 8.646223068 -1.428212404 2.259153205e-38
1.251265645 18.01481819 -2.974895954 2.176501259e-38
1.235620975 18.88803291 -3.118249416 2.167317709e-38
1.229204059 21.43408394 -3.536835194 2.14895061e-38
1.18110621 28.64788246 -4.723437786 2.084665763e-38
1.171418786 31.48771095 -5.190847397 2.057115114e-38
0.9378165603 32.16913223 -5.301769257 2.057115114e-38
0.80758214 32.13568115 -5.295679092 2.057115114e-38
0.6782504916 32.13217926 -5.294610023 2.057115114e-38
0.549746573 32.17462158 -5.301195145 2.057115114e-38
0.4201821685 32.15950012 -5.298383236 2.057115114e-38
0.290989995 32.16967773 -5.299824715 2.057115114e-38
0.1617402881 32.18746185 -5.302604675 2.057115114e-38
0.03234215453 32.17606354 -5.300663471 2.057115114e-38
-0.0969241634 32.15069199 -5.296503544 2.057115114e-38
-0.6132441163 32.11249542 -5.291151524 2.057115114e-38
-0.7426767945 32.12528229 -5.293706417 2.057115114e-38
-0.8715171814 32.11117172 -5.291916847 2.057115114e-38
-1.000857353 32.11559296 -5.29326582 2.057115114e-38
-1.12868011 32.07522964 -5.28731823 2.057115114e-38
-1.258858204 32.1022377 -5.292561531 2.057115114e-38
-1.775651097 32.0915947 -5.294830322 2.057115114e-38
-2.032707214 32.06248856 -5.292553902 2.057115114e-38
-2.16078043 32.04188919 -5.29054451 2.057115114e-38
-2.290492535 32.04600906 -5.292702675 2.057115114e-38
-2.418691874 32.02856445 -5.291383743 2.057115114e-38
-2.750567198 32.8985672 -5.438593864 2.047931564e-38
-2.885497332 32.91806793 -5.44369173 2.047931564e-38
-3.018001318 32.90828323 -5.444036007 2.047931564e-38
-3.150745153 32.90090561 -5.444866657 2.047931564e-38
-3.418935776 32.91075897 -5.450870991 2.047931564e-38
-3.547486544 32.86227036 -5.445158482 2.047931564e-38
-4.072496891 32.77744675 -5.441250801 2.047931564e-38
-4.208121777 32.79106903 -5.446277142 2.047931564e-38
-4.336444378 32.74789047 -5.44195652 2.047931564e-38
-4.467274666 32.72450256 -5.441009998 2.047931564e-38
-4.603405476 32.73899078 -5.446453094 2.047931564e-38
-4.733584404 32.71064758 -5.444858551 2.047931564e-38
-4.866017342 32.69790649 -5.445950508 2.047931564e-38
-5.262115479 32.65006638 -5.448155403 2.047931564e-38
-5.391736507 32.61896896 -5.446540356 2.047931564e-38
-5.523396492 32.60042953 -5.447109222 2.047931564e-38
-5.910431862 32.50003433 -5.441845417 2.047931564e-38
-6.04995966 32.52404404 -5.449896812 2.047931564e-38
-6.17320776 32.46025848 -5.443322659 2.047931564e-38
-6.560882092 32.36711502 -5.440576077 2.047931564e-38
-6.692654133 32.34873962 -5.441963196 2.047931564e-38
-6.820597649 32.31227112 -5.440356731 2.047931564e-38
-6.960792542 32.3322525 -5.448433876 2.047931564e-38
-7.083220005 32.26999664 -5.442694187 2.047931564e-38
-7.337810993 32.19166183 -5.439256668 2.047931564e-38
-7.466202259 32.15782166 -5.438564301 2.047931564e-38
-7.987183571 32.05319595 -5.441888809 2.047931564e-38
-8.10754776 31.98754311 -5.436232567 2.047931564e-38
-8.248451233 32.0027504 -5.444406986 2.047931564e-38
-8.375002861 31.961586 -5.443089008 2.047931564e-38
-8.506778717 31.94022751 -5.445232391 2.047931564e-38
-8.621378899 31.85503387 -5.436573029 2.047931564e-38
-8.759766579 31.85802269 -5.443048477 2.047931564e-38
-8.884465218 31.81069946 -5.441022396 2.047931564e-38
-9.012109756 31.77416801 -5.440926552 2.047931564e-38
-9.145312309 31.75697517 -5.444232941 2.047931564e-38
-9.281121254 31.74801445 -5.449049473 2.047931564e-38
-9.401522636 31.68634796 -5.444908619 2.047931564e-38
-10.04024506 31.50282097 -5.44695282 2.047931564e-38
-10.2818203 31.386446 -5.440947533 2.047931564e-38
-10.42171478 31.3863945 -5.44815731 2.047931564e-38
-10.54286861 31.32955933 -5.445605278 2.047931564e-38
-10.79268169 31.23877144 -5.444732189 2.047931564e-38
-10.9140358 31.18334198 -5.442673206 2.047931564e-38
-11.15809345 31.07706833 -5.439607143 2.047931564e-38
-11.28759766 31.04480743 -5.441858768 2.047931564e-38
-11.42954826 31.04603386 -5.450082779 2.047931564e-38
-11.54153633 30.96566772 -5.444076538 2.047931564e-38
-11.66948891 30.92847061 -5.445740223 2.047931564e-38
-11.90167809 30.79198265 -5.438382149 2.047931564e-38
-12.16303253 30.7311821 -5.444737911 2.047931564e-38
-12.28953838 30.68967247 -5.446093559 2.047931564e-38
-12.39531708 30.59685707 -5.438420296 2.047931564e-38
-12.52008724 30.55136108 -5.439235687 2.047931564e-38
-12.65651798 30.53384399 -5.445131302 2.047931564e-38
-12.77130985 30.46406174 -5.441797733 2.047931564e-38
-13.38685513 30.21440887 -5.444173813 2.047931564e-38
-13.74166489 30.0320015 -5.440773964 2.047931564e-38
-13.97869682 29.91206741 -5.439229965 2.047931564e-38
-14.12395477 29.90881157 -5.448919773 2.047931564e-38
-14.23131371 29.82507324 -5.444043636 2.047931564e-38
-14.33896351 29.74245453 -5.439440727 2.047931564e-38
-14.49179745 29.753088 -5.451994896 2.047931564e-38
-14.58912563 29.64958763 -5.443731308 2.047931564e-38
-14.71671963 29.60783195 -5.446884632 2.047931564e-38
-14.95606995 29.49207115 -5.447534084 2.047931564e-38
-15.07190514 29.42652702 -5.446586132 2.047931564e-38
-15.17479324 29.33623314 -5.441110611 2.047931564e-38
-15.5249958 29.14645195 -5.440241814 2.047931564e-38
-15.6544714 29.1069355 -5.44456768 2.047931564e-38
-15.76904869 29.03953743 -5.443772793 2.047931564e-38
-15.88684368 28.97803497 -5.444172382 2.047931564e-38
-16.01869392 28.94192505 -5.449443817 2.047931564e-38
-16.11379242 28.83952141 -5.442314625 2.047931564e-38
-16.35531998 28.72690964 -5.445704937 2.047931564e-38
-16.58296013 28.58965111 -5.444782734 2.047931564e-38
-16.71882057 28.55878258 -5.451656342 2.047931564e-38
-16.93613243 28.40368652 -5.447869778 2.047931564e-38
-17.0558567 28.34483337 -5.449687481 2.047931564e-38
-17.16824532 28.27370644 -5.449237347 2.047931564e-38
-17.27882385 28.19966507 -5.448309898 2.047931564e-38
-17.40570831 28.15206528 -5.452589512 2.047931564e-38
-17.48763466 28.03201866 -5.442910671 2.047931564e-38
-17.59562492 27.95410538 -5.44149971 2.047931564e-38
-17.70369339 27.87674713 -5.44022274 2.047931564e-38
-17.83104897 27.82943916 -5.444933891 2.047931564e-38
-17.92206573 27.72546768 -5.438645363 2.047931564e-38
-18.04576683 27.67218971 -5.442383766 2.047931564e-38
-18.15826416 27.60159874 -5.442807674 2.047931564e-38
-18.27113152 27.53145981 -5.44341898 2.047931564e-38
-18.36886787 27.43867493 -5.439629555 2.047931564e-38
-18.48413277 27.37218666 -5.441135406 2.047931564e-38
-18.52692223 27.19915009 -5.421499729 2.047931564e-38
-18.53562927 26.97821236 -5.392269611 2.047931564e-38
-18.55522346 26.31931496 -5.30523634 2.057115114e-38
-18.6233387 26.19332504 -5.294564724 2.057115114e-38
-18.73750305 26.13080406 -5.297111034 2.057115114e-38
-19.04696465 25.89712715 -5.295916557 2.057115114e-38
-19.33995438 25.64175415 -5.291007519 2.057115114e-38
-19.66767502 25.43239975 -5.29637146 2.057115114e-38
-19.76703835 25.34966469 -5.295646191 2.057115114e-38
-19.86908913 25.27039146 -5.295728683 2.057115114e-38
-19.95689774 25.17313004 -5.292116642 2.057115114e-38
-20.04600525 25.07777786 -5.288969994 2.057115114e-38
-20.25553513 24.92632866 -5.291203976 2.057115114e-38
-20.4541893 24.76136208 -5.290923119 2.057115114e-38
-20.53259087 24.65373993 -5.285522461 2.057115114e-38
-20.75366211 24.51567268 -5.29152298 2.057115114e-38
-20.8410759 24.41916084 -5.288734913 2.057115114e-38
-20.95638466 24.35531998 -5.293111324 2.057115114e-38
-21.06394196 24.28219795 -5.295579433 2.057115114e-38
-21.1455307 24.17918396 -5.291609287 2.057115114e-38
-21.34861946 24.01893234 -5.293933868 2.057115114e-38
-21.63068199 23.75311661 -5.292458057 2.057115114e-38
-21.7189045 23.6582222 -5.290727615 2.057115114e-38
-21.79230309 23.54746819 -5.285507202 2.057115114e-38
-22.01652527 23.40936661 -5.294069767 2.057115114e-38
-20.74906731 21.70936584 -4.94715929 2.075482213e-38
-22.29053497 23.13520622 -5.292479992 2.057115114e-38
-22.38577843 23.04792023 -5.293053627 2.057115114e-38
-22.65931702 22.77346992 -5.292399883 2.057115114e-38
-22.7626152 22.69412804 -5.295180321 2.057115114e-38
-22.84431076 22.59314728 -5.293008804 2.057115114e-38
-23.01742744 22.40117836 -5.291219711 2.057115114e-38
-23.2309761 22.24816132 -5.299021244 2.057115114e-38
-20.8397274 19.32534027 -4.68208456 2.084665763e-38
-23.74450111 21.66656876 -5.295390606 2.057115114e-38
-23.83234406 21.57179451 -5.295599937 2.057115114e-38
-24.00473595 21.37924194 -5.295540333 2.057115114e-38
-24.09764862 21.288908 -5.297114849 2.057115114e-38
-20.84016418 18.2624588 -4.564881802 2.093849312e-38
-24.28373909 21.10813904 -5.300545692 2.057115114e-38
-24.33595848 20.98241615 -5.293497086 2.057115114e-38
-24.41924286 20.88362694 -5.293301105 2.057115114e-38
-24.495121 20.77860451 -5.291597843 2.057115114e-38
-24.70765877 20.61958313 -5.301523209 2.057115114e-38
-24.76543617 20.49948692 -5.296196938 2.057115114e-38
-24.82978249 20.38510895 -5.292390347 2.057115114e-38
-25.03646851 20.22002983 -5.301622868 2.057115114e-38
-25.09978867 20.10498619 -5.297872543 2.057115114e-38
-25.20524025 20.02364731 -5.303096771 2.057115114e-38
-25.33038902 19.79300117 -5.295776367 2.057115114e-38
-25.499506 19.59701347 -5.298020363 2.057115114e-38
-25.6080246 19.51717377 -5.304222107 2.057115114e-38
-25.65406609 19.3897171 -5.297570705 2.057115114e-38
-25.84744453 19.05049515 -5.289673805 2.057115114e-38
-25.96059418 18.97332573 -5.297179699 2.057115114e-38
-26.10466957 18.75850487 -5.295630455 2.057115114e-38
-26.21108055 18.67567062 -5.301946163 2.057115114e-38
-26.26400185 18.55465889 -5.297521114 2.057115114e-38
-26.33972931 18.44988441 -5.297793388 2.057115114e-38
-26.4821167 18.23399544 -5.296772957 2.057115114e-38
-26.63027763 18.0221386 -5.297254562 2.057115114e-38
-26.70710945 17.91802597 -5.298166752 2.057115114e-38
-26.77983475 17.81113052 -5.29834795 2.057115114e-38
-26.89661598 17.57855988 -5.293321609 2.057115114e-38
-27.01418495 17.50083733 -5.302571297 2.057115114e-38
-27.08734894 17.39401245 -5.303162098 2.057115114e-38
-27.13319206 17.26980591 -5.298503876 2.057115114e-38
-27.21128845 17.16621971 -5.300237656 2.057115114e-38
-27.35926056 16.9535923 -5.302336216 2.057115114e-38
-27.63027763 16.51265144 -5.30271101 2.057115114e-38
-27.77583504 16.29800415 -5.305325985 2.057115114e-38
-27.90060806 16.07106209 -5.304305077 2.057115114e-38
-27.94550323 15.94766235 -5.300609589 2.057115114e-38
-27.99452972 15.82680321 -5.297799587 2.057115114e-38
-28.10660553 15.593297 -5.295110703 2.057115114e-38
-28.23113441 15.3668499 -5.2951231 2.057115114e-38
-28.32570076 15.27105331 -5.301303864 2.057115114e-38
-28.45850563 15.04860115 -5.303342819 2.057115114e-38
-28.49634743 14.92234516 -5.299173832 2.057115114e-38
-28.62211037 14.69618988 -5.300415516 2.057115114e-38
-28.70812416 14.5948267 -5.305436134 2.057115114e-38
-28.80404091 14.35332584 -5.301663876 2.057115114e-38
-28.95306778 14.13816357 -5.308000565 2.057115114e-38
-28.97244835 14.00367165 -5.301189423 2.057115114e-38
-29.17920685 13.671978 -5.308459759 2.057115114e-38
-29.19891167 13.53834343 -5.30210495 2.057115114e-38
-29.24488831 13.41709995 -5.300617695 2.057115114e-38
-29.37626648 13.19251537 -5.30503273 2.057115114e-38
-29.43887138 13.0786829 -5.306801319 2.057115114e-38
-29.50888824 12.82671738 -5.300661564 2.057115114e-38
-29.58276367 12.71769238 -5.30470562 2.057115114e-38
-29.59901237 12.58392334 -5.298503876 2.057115114e-38
-21.17964745 8.704395294 -3.772325039 2.130583511e-38
-29.88274384 12.00127983 -5.305035114 2.057115114e-38
-29.93065071 11.88101482 -5.305019379 2.057115114e-38
-29.99762154 11.76824188 -5.30846262 2.057115114e-38
-30.07753372 11.52141476 -5.30603981 2.057115114e-38
-30.15405083 11.27358246 -5.303378582 2.057115114e-38
-30.2449398 11.03121853 -5.303592682 2.057115114e-38
-30.25802231 10.89838886 -5.29816246 2.057115114e-38
-25.72054863 9.14741993 -4.497177124 2.093849312e-38
-30.40043449 10.67433453 -5.307897091 2.057115114e-38
-26.73085976 9.145130157 -4.654221058 2.084665763e-38
-27.06118584 9.136788368 -4.70527029 2.084665763e-38
-30.5316906 10.17201519 -5.301570415 2.057115114e-38
-30.61810303 9.928031921 -5.302542686 2.057115114e-38
-30.73709679 9.558529854 -5.302800179 2.057115114e-38
-30.79843521 9.441999435 -5.306790829 2.057115114e-38
-30.85038757 9.322419167 -5.309243202 2.057115114e-38
-30.90914917 9.2047472 -5.312945366 2.057115114e-38
-30.99017715 9.093411446 -5.32054615 2.057115114e-38
-31.07997322 8.984209061 -5.329718113 2.057115114e-38
-31.08999062 8.85185051 -5.325291634 2.057115114e-38
-31.15204811 8.734298706 -5.329864025 2.057115114e-38
-31.27050018 8.632052422 -5.34414959 2.057115114e-38
-31.3128891 8.508443832 -5.345505714 2.057115114e-38
-31.34029007 8.380753517 -5.344387531 2.057115114e-38
-31.41881752 8.266552925 -5.352067471 2.057115114e-38
-31.51409721 7.886520386 -5.351707935 2.057115114e-38
-31.53768158 7.623535633 -5.345132351 2.057115114e-38
-31.63754272 7.378958702 -5.351829529 2.057115114e-38
-31.67187881 7.118963718 -5.347781658 2.057115114e-38
-31.68842316 6.988983631 -5.345788479 2.057115114e-38
-31.7294693 6.864408493 -5.348013878 2.057115114e-38
-31.78440666 6.609244823 -5.348144531 2.057115114e-38
-31.81709671 6.482717514 -5.349213123 2.057115114e-38
-31.81833839 6.349855423 -5.345091343 2.057115114e-38
-32.84506607 6.007290363 -5.500628948 2.047931564e-38
-32.89092636 5.606624603 -5.496582985 2.047931564e-38
-32.94891739 5.480307102 -5.502549648 2.047931564e-38
-33.00678635 5.353662491 -5.508574963 2.047931564e-38
-32.9629097 5.210646152 -5.497713089 2.047931564e-38
-33.00418091 5.081270695 -5.501145363 2.047931564e-38
-32.99707031 4.944448948 -5.496601582 2.047931564e-38
-33.04303741 4.815617085 -5.500989914 2.047931564e-38
-33.05318832 4.681481838 -5.499498367 2.047931564e-38
-33.06742477 4.54795599 -5.498780251 2.047931564e-38
-33.08411026 4.414828777 -5.49856472 2.047931564e-38
-33.13021088 4.285503864 -5.503317833 2.047931564e-38
-33.10448074 4.146949291 -5.496246815 2.047931564e-38
-33.13715744 4.01580286 -5.498938084 2.047931564e-38
-33.18069077 3.615612507 -5.498520851 2.047931564e-38
-33.23992538 3.21694231 -5.501506805 2.047931564e-38
-33.2289505 3.081089497 -5.497585773 2.047931564e-38
-33.34840393 2.552082539 -5.509852886 2.047931564e-38
-33.3057251 2.414187193 -5.501152039 2.047931564e-38
-33.3424263 2.147524595 -5.504189968 2.047931564e-38
-33.31301498 2.011194229 -5.497952461 2.047931564e-38
-33.35648346 1.879288673 -5.503838539 2.047931564e-38
-33.3800087 1.746006608 -5.506516933 2.047931564e-38
-33.33546448 1.609339118 -5.498056889 2.047931564e-38
-33.34175491 1.341048717 -5.497135639 2.047931564e-38
-33.35059357 1.207145929 -5.497751236 2.047931564e-38
-33.3469696 0.938621521 -5.495732307 2.047931564e-38
-33.35159302 0.6704643965 -5.495428085 2.047931564e-38
-33.38041687 0.5367941856 -5.49977684 2.047931564e-38
-33.39389038 0.1342432201 -5.501330853 2.047931564e-38
-29.29148293 1.405250987e-05 -5.505651474 2.075482213e-38
-29.2755909 -0.2353695482 -5.502842903 2.075482213e-38
-29.26513672 -0.3529405594 -5.50109911 2.075482213e-38
-29.27464294 -0.4707614481 -5.50319767 2.075482213e-38
-29.26426506 -0.5882729292 -5.501646996 2.075482213e-38
-29.28985596 -0.706589818 -5.506947517 2.075482213e-38
-29.25969696 -0.8235687017 -5.501855373 2.075482213e-38
-29.28902817 -0.9422388077 -5.508037567 2.075482213e-38
-29.25235558 -1.176563382 -5.502745628 2.075482213e-38
-29.21183205 -1.410247207 -5.49707365 2.075482213e-38
-29.21087074 -1.527931571 -5.498005867 2.075482213e-38
-29.21216011 -1.76360631 -5.500740051 2.075482213e-38
-29.171175 -1.878853679 -5.494400024 2.075482213e-38
-29.22021294 -1.999986649 -5.505108356 2.075482213e-38
-29.1921463 -2.470231056 -5.50658989 2.075482213e-38
-29.179636 -2.705628872 -5.508160114 2.075482213e-38
-29.13082504 -2.937503576 -5.503221989 2.075482213e-38
-29.11915398 -3.054623842 -5.503291607 2.075482213e-38
-29.0248127 -3.399074078 -5.49281168 2.075482213e-38
-29.06362724 -3.52211833 -5.502792835 2.075482213e-38
-29.0025692 -3.75155592 -5.49676466 2.075482213e-38
-29.00592613 -3.870611429 -5.500305176 2.075482213e-38
-28.96372032 -4.102249622 -5.498379707 2.075482213e-38
-28.90522957 -4.450174332 -5.497062683 2.075482213e-38
-28.87143898 -4.563874722 -5.494078636 2.075482213e-38
-28.88685989 -4.685407639 -5.500554562 2.075482213e-38
-28.86259079 -4.800619125 -5.499568462 2.075482213e-38
-28.879076 -4.922748089 -5.50643301 2.075482213e-38
-28.79945374 -5.147790432 -5.498965263 2.075482213e-38
-28.77481461 -5.382481098 -5.502348423 2.075482213e-38
-28.71803665 -5.491437435 -5.495671749 2.075482213e-38
-28.69434738 -5.606562138 -5.495402813 2.075482213e-38
-28.70516968 -5.728571892 -5.501841545 2.075482213e-38
-28.66165543 -5.959897518 -5.502511501 2.075482213e-38
-28.62308121 -6.192351341 -5.504481792 2.075482213e-38
-28.57574654 -6.423027039 -5.505131245 2.075482213e-38
-28.56928253 -6.542339325 -5.508909225 2.075482213e-38
-28.45944023 -6.879404545 -5.503323555 2.075482213e-38
-28.38772774 -7.225531101 -5.505917549 2.075482213e-38
-28.34974098 -7.33734417 -5.504226685 2.075482213e-38
-28.22501755 -7.669390678 -5.497565269 2.075482213e-38
-28.18064499 -7.779064178 -5.494951725 2.075482213e-38
-28.16346741 -7.896359444 -5.497768402 2.075482213e-38
-28.11751556 -8.005547523 -5.49503994 2.075482213e-38
-28.11399841 -8.126808167 -5.50067234 2.075482213e-38
-28.07803535 -8.238928795 -5.500103951 2.075482213e-38
-28.04729271 -8.352471352 -5.500591278 2.075482213e-38
-27.92484283 -8.683971405 -5.496716976 2.075482213e-38
-27.92476082 -8.807203293 -5.503625393 2.075482213e-38
-27.88237953 -8.917233467 -5.502292156 2.075482213e-38
-27.81735992 -9.01987648 -5.496577263 2.075482213e-38
-27.78305244 -9.1323452 -5.497010231 2.075482213e-38
-27.78088379 -9.25552845 -5.503894329 2.075482213e-38
-27.72333145 -9.360342979 -5.499901295 2.075482213e-38
-27.66922569 -9.466144562 -5.4966712 2.075482213e-38
-27.27527237 -9.700343132 -5.441255569 2.084665763e-38
-26.73732185 -9.751875877 -5.349403858 2.084665763e-38
-26.69027901 -9.856450081 -5.347877979 2.084665763e-38
-26.63776016 -9.95893383 -5.345332146 2.084665763e-38
-26.58261108 -10.18264294 -5.350519657 2.084665763e-38
-26.53214073 -10.28580284 -5.348639965 2.084665763e-38
-26.49014473 -10.39222527 -5.348557949 2.084665763e-38
-26.39871597 -10.60203838 -5.347136021 2.084665763e-38
-26.34539032 -10.70380688 -5.345002174 2.084665763e-38
-26.29948616 -10.80852222 -5.344460964 2.084665763e-38
-26.29823303 -10.93179512 -5.353093147 2.084665763e-38
-26.20561409 -11.01705074 -5.343212128 2.084665763e-38
-26.1688633 -11.12558842 -5.344797134 2.084665763e-38
-26.11432648 -11.22657108 -5.342833519 2.084665763e-38
-26.08617592 -11.46382713 -5.355754852 2.084665763e-38
-25.99046135 -11.54664326 -5.345590115 2.084665763e-38
-25.93531609 -11.64721489 -5.343840122 2.084665763e-38
-25.90065384 -11.75698948 -5.346393108 2.084665763e-38
-25.7005806 -12.16829395 -5.344791412 2.084665763e-38
-25.65620232 -12.27378654 -5.345780373 2.084665763e-38
-25.42296028 -12.54117393 -5.328308582 2.084665763e-38
-25.34650993 -12.63039589 -5.322883606 2.084665763e-38
-25.30360603 -12.73624229 -5.324582577 2.084665763e-38
-25.21944427 -12.82121277 -5.317677021 2.084665763e-38
-25.19347 -12.93571472 -5.323124409 2.084665763e-38
-25.12487602 -13.0283947 -5.319655418 2.084665763e-38
-25.0247612 -13.10440731 -5.309566975 2.084665763e-38
-24.81598663 -13.37886429 -5.299118996 2.084665763e-38
-24.75628471 -13.47539616 -5.297894478 2.084665763e-38
-24.64529228 -13.67296982 -5.297500134 2.084665763e-38
-24.58160973 -13.76716995 -5.295664787 2.084665763e-38
-24.54234123 -13.87507725 -5.299179554 2.084665763e-38
-24.49713326 -13.9797678 -5.301505566 2.084665763e-38
-21.38161278 -12.31604099 -4.637943745 2.121399961e-38
-21.20725822 -12.329422 -4.610841751 2.121399961e-38
-21.18618011 -12.54614925 -4.62803936 2.121399961e-38
-24.17156982 -14.44560528 -5.292829037 2.084665763e-38
-24.09989166 -14.66701508 -5.30278492 2.084665763e-38
-23.92616463 -14.82617569 -5.290604115 2.084665763e-38
-23.87605095 -14.92831135 -5.292758465 2.084665763e-38
-21.49281311 -13.80149651 -4.800994396 2.112216412e-38
-21.48319626 -13.91762352 -4.811314106 2.112216412e-38
-23.58098984 -15.41157532 -5.294961929 2.084665763e-38
-23.45419121 -15.59924221 -5.294479847 2.084665763e-38
-23.32002258 -15.78189564 -5.292662144 2.084665763e-38
-23.26532173 -15.88160229 -5.294693947 2.084665763e-38
-23.19373131 -15.96979427 -5.292969227 2.084665763e-38
-23.04776382 -16.1439724 -5.289108753 2.084665763e-38
-23.00511169 -16.25234032 -5.29427433 2.084665763e-38
-21.48133087 -15.30565548 -4.95772171 2.103032862e-38
-22.74629402 -16.62413979 -5.295545101 2.084665763e-38
-22.61437225 -16.80830574 -5.296124458 2.084665763e-38
-22.54809761 -16.900177 -5.296472549 2.084665763e-38
-22.45323563 -16.97048378 -5.290171146 2.084665763e-38
-22.38365936 -17.05971527 -5.289893627 2.084665763e-38
-22.32781029 -17.15947533 -5.292956829 2.084665763e-38
-22.25310135 -17.24478531 -5.291632652 2.084665763e-38
-21.50338173 -16.80259323 -5.129387856 2.093849312e-38
-21.448349 -16.89888763 -5.132421494 2.093849312e-38
-22.04523659 -17.51325226 -5.292045116 2.084665763e-38
-21.88938713 -17.67835045 -5.288582325 2.084665763e-38
-21.84427261 -17.78748512 -5.294917107 2.084665763e-38
-21.73492622 -17.84423065 -5.285757065 2.084665763e-38
-21.67419434 -17.94071198 -5.288487911 2.084665763e-38
-21.61878967 -18.04180336 -5.29262352 2.084665763e-38
-21.52239418 -18.10862923 -5.286800861 2.084665763e-38
-21.45504189 -18.19975662 -5.288183689 2.084665763e-38
-21.36753845 -18.27374649 -5.28467989 2.084665763e-38
-21.32430077 -18.38571167 -5.292224407 2.084665763e-38
-21.25610542 -18.47639656 -5.293693066 2.084665763e-38
-21.14901543 -18.53309822 -5.285536289 2.084665763e-38
-21.12695313 -18.66444969 -5.298731327 2.084665763e-38
-21.02642632 -18.72666168 -5.292355537 2.084665763e-38
-20.81491089 -18.99333954 -5.296386719 2.084665763e-38
-20.71171761 -19.05232811 -5.289575577 2.084665763e-38
-20.64562798 -19.14532852 -5.292313576 2.084665763e-38
-20.57528305 -19.23450851 -5.294055462 2.084665763e-38
-20.49912834 -19.31831169 -5.294398785 2.084665763e-38
-20.44452286 -19.42260742 -5.300415516 2.084665763e-38
-20.16031456 -19.62054062 -5.287695408 2.084665763e-38
-20.09658241 -19.71643448 -5.29172802 2.084665763e-38
-20.00695419 -19.78697586 -5.289027214 2.084665763e-38
-19.96645737 -19.90633965 -5.299434662 2.084665763e-38
-19.84622383 -19.9461937 -5.288762569 2.084665763e-38
-19.78399467 -20.04417229 -5.293609142 2.084665763e-38
-19.70685959 -20.12724876 -5.294584751 2.084665763e-38
-19.62512779 -20.20560646 -5.294403553 2.084665763e-38
-19.25463295 -20.47274399 -5.28258276 2.084665763e-38
-19.10756302 -20.64647102 -5.287601471 2.084665763e-38
-19.06766129 -20.77022934 -5.299623966 2.084665763e-38
-19.02022934 -21.22681808 -5.357202053 2.084665763e-38
-19.04099464 -21.42264557 -5.387265682 2.084665763e-38
-19.03129768 -21.58587646 -5.409029961 2.084665763e-38
-19.03328705 -21.76388741 -5.434418678 2.084665763e-38
-18.99002075 -21.89139938 -5.4471488 2.084665763e-38
-18.71485329 -22.10724831 -5.444301128 2.084665763e-38
-18.62709618 -22.18380356 -5.444672585 2.084665763e-38
-18.25239944 -22.46126938 -5.440024376 2.084665763e-38
-18.19249344 -22.57234955 -5.44917345 2.084665763e-38
-17.89161301 -22.75533295 -5.440856934 2.084665763e-38
-17.71382141 -22.90583611 -5.442615032 2.084665763e-38
-17.23224258 -23.23345375 -5.437051773 2.084665763e-38
-17.16489792 -23.33816338 -5.445363045 2.084665763e-38
-17.05007744 -23.37836647 -5.438706875 2.084665763e-38
-16.89038849 -23.55487251 -5.448001385 2.084665763e-38
-16.69844437 -23.68704987 -5.447347641 2.084665763e-38
-16.1997242 -23.98931694 -5.440868855 2.084665763e-38
-16.1170578 -24.07500458 -5.445563316 2.084665763e-38
-16.03097153 -24.15592003 -5.449247837 2.084665763e-38
-15.50159168 -24.40923691 -5.434997082 2.084665763e-38
-15.44292259 -24.53458977 -5.449040413 2.084665763e-38
-15.32161331 -24.55994034 -5.440950394 2.084665763e-38
-15.22903156 -24.63210487 -5.443329334 2.084665763e-38
-14.82882214 -24.86949348 -5.442384243 2.084665763e-38
-14.73501492 -24.93951797 -5.444706917 2.084665763e-38
-14.61633396 -24.96727562 -5.437892437 2.084665763e-38
-14.13901043 -25.30519104 -5.44848299 2.084665763e-38
-14.01638126 -25.32412529 -5.440385342 2.084665763e-38
-13.93529701 -25.41836357 -5.448548794 2.084665763e-38
-13.6120224 -25.55497551 -5.442248344 2.084665763e-38
-13.5361948 -25.66077805 -5.453146935 2.084665763e-38
-13.41335869 -25.67752266 -5.445205212 2.084665763e-38
-13.19683266 -25.76566505 -5.441217899 2.084665763e-38
-13.09681034 -25.82571983 -5.442741394 2.084665763e-38
-12.88692379 -25.92652321 -5.441969872 2.084665763e-38
-12.78551579 -25.9840641 -5.443218708 2.084665763e-38
-12.68193626 -26.03725624 -5.443634987 2.084665763e-38
-12.58395672 -26.10211754 -5.446577072 2.084665763e-38
-12.47272205 -26.13946152 -5.443860054 2.084665763e-38
-12.26770878 -26.25089645 -5.446348667 2.084665763e-38
-12.15617943 -26.2870903 -5.443676472 2.084665763e-38
-12.0396471 -26.31222153 -5.438814163 2.084665763e-38
-11.95249939 -26.40177345 -5.447349072 2.084665763e-38
-11.85750675 -26.47469902 -5.452517033 2.084665763e-38
-11.72801399 -26.47032356 -5.441860676 2.084665763e-38
-11.62686729 -26.52946854 -5.444367886 2.084665763e-38
-11.53642941 -26.61361885 -5.452078819 2.084665763e-38
-11.41306686 -26.62178612 -5.44430542 2.084665763e-38
-11.31368828 -26.68568611 -5.448028088 2.084665763e-38
-11.08283615 -26.73733902 -5.440206528 2.084665763e-38
-10.99886799 -26.83918762 -5.451888561 2.084665763e-38
-10.86850071 -26.82800293 -5.44069767 2.084665763e-38
-10.66018391 -26.93395615 -5.444626331 2.084665763e-38
-10.55352783 -26.98093414 -5.445503235 2.084665763e-38
-10.44169426 -27.01467705 -5.443800926 2.084665763e-38
-10.3413353 -27.07821655 -5.448180676 2.084665763e-38
-10.2355051 -27.12779999 -5.44983387 2.084665763e-38
-10.11109161 -27.12774277 -5.441613197 2.084665763e-38
-9.792879105 -27.27470779 -5.447009087 2.084665763e-38
-9.577831268 -27.36551857 -5.449586391 2.084665763e-38
-9.46658802 -27.40046692 -5.448923588 2.084665763e-38
-9.348308563 -27.4146862 -5.444238663 2.084665763e-38
-9.012227058 -27.51079178 -5.441339493 2.084665763e-38
-8.908098221 -27.56703377 -5.445335865 2.084665763e-38
-8.807106018 -27.63364601 -5.451457024 2.084665763e-38
-8.578428268 -27.68354797 -5.447520733 2.084665763e-38
-8.345711708 -27.71876907 -5.441072941 2.084665763e-38
-8.127112389 -27.80045128 -5.444103718 2.084665763e-38
-8.017760277 -27.8414669 -5.445784092 2.084665763e-38
-7.348239422 -28.04303741 -5.448946953 2.084665763e-38
-7.233542919 -28.0649929 -5.447519302 2.084665763e-38
-7.005220413 -28.11242294 -5.445620537 2.084665763e-38
-6.552918434 -28.2241745 -5.446147442 2.084665763e-38
-6.438816547 -28.24756622 -5.445621967 2.084665763e-38
-6.217495441 -28.32583809 -5.450902939 2.084665763e-38
-6.096596241 -28.31803131 -5.444636345 2.084665763e-38
-5.984982491 -28.35313416 -5.446715355 2.084665763e-38
-5.759178162 -28.41184998 -5.448923111 2.084665763e-38
-5.630872726 -28.36405563 -5.435371876 2.084665763e-38
-5.527062416 -28.43925667 -5.445485115 2.084665763e-38
-5.414036274 -28.46838951 -5.44685173 2.084665763e-38
-5.183863163 -28.50474548 -5.445653915 2.084665763e-38
-5.073337078 -28.54858208 -5.450090885 2.084665763e-38
-4.953217983 -28.53801155 -5.444227695 2.084665763e-38
-4.720608234 -28.55867195 -5.440748692 2.084665763e-38
-4.613539219 -28.62576485 -5.449959278 2.084665763e-38
-4.491434097 -28.59956551 -5.441483498 2.084665763e-38
-4.153120041 -28.69925308 -5.450521946 2.084665763e-38
-4.038349628 -28.72035599 -5.451404572 2.084665763e-38
-3.918434381 -28.70384598 -5.44523716 2.084665763e-38
-3.68497324 -28.71443748 -5.441453457 2.084665763e-38
-3.569209099 -28.72659111 -5.440991879 2.084665763e-38
-3.456678867 -28.76547241 -5.445679188 2.084665763e-38
-3.340762138 -28.77710342 -5.445298672 2.084665763e-38
-2.907539606 -27.98797607 -5.288953304 2.084665763e-38
-2.567670584 -27.99778748 -5.284572124 2.084665763e-38
-2.456063509 -28.01884842 -5.286640167 2.084665763e-38
-2.348252296 -28.0863781 -5.297558784 2.084665763e-38
-1.781194687 -28.09500122 -5.291361809 2.084665763e-38
-1.668985724 -28.11436653 -5.293702602 2.084665763e-38
-1.555550456 -28.1138134 -5.292377949 2.084665763e-38
-1.441904426 -28.107584 -5.290072441 2.084665763e-38
-1.329474807 -28.12537956 -5.292372227 2.084665763e-38
-1.216356397 -28.12939072 -5.29216671 2.084665763e-38
-1.101283193 -28.083395 -5.282635689 2.084665763e-38
-0.9900851846 -28.13602638 -5.291743755 2.084665763e-38
-0.3032217324 -13.11636257 -2.466017962 2.222419007e-38
-0.2500527203 -13.09433746 -2.461668015 2.222419007e-38
-0.1980350167 -13.1366539 -2.469454288 2.222419007e-38
-0.1452875286 -13.14307499 -2.47053194 2.222419007e-38
0.02831504866 -28.16978264 -5.294817448 2.084665763e-38
0.1413795501 -28.13923645 -5.289141655 2.084665763e-38
0.2545706034 -28.14584351 -5.290532112 2.084665763e-38
0.4814593792 -28.17887306 -5.297300816 2.084665763e-38
0.5938008428 -28.13230515 -5.28894949 2.084665763e-38
0.7075663209 -28.15671921 -5.294034481 2.084665763e-38
0.8832404017 -23.7420063 -4.465655804 2.130583511e-38
0.9783225656 -23.72993851 -4.464087009 2.130583511e-38
1.076439023 -23.78610039 -4.475430012 2.121399961e-38
1.320605874 -23.02849007 -4.33556509 2.130583511e-38
1.592610598 -22.93001556 -4.320327282 2.130583511e-38
1.67794466 -22.83057785 -4.302826405 2.130583511e-38
1.791292787 -23.1019783 -4.355298519 2.130583511e-38
1.899397135 -23.2814846 -4.390544891 2.130583511e-38
2.513490915 -28.02641106 -5.289009094 2.084665763e-38
2.627500296 -28.03071404 -5.291771889 2.084665763e-38
2.743902922 -28.05811501 -5.298985481 2.084665763e-38
2.855753422 -28.0378952 -5.29729414 2.084665763e-38
3.077342749 -27.97998428 -5.290853024 2.084665763e-38
3.194919825 -28.01239967 -5.299368382 2.084665763e-38
3.307714462 -28.00105667 -5.299695492 2.084665763e-38
3.412601948 -27.92492294 -5.28783989 2.084665763e-38
3.531511545 -27.96391487 -5.297868729 2.084665763e-38
3.639572382 -27.91626549 -5.291570187 2.084665763e-38
3.864069223 -27.88741875 -5.291819572 2.084665763e-38
3.979272127 -27.89354324 -5.295974731 2.084665763e-38
2.285676241 -15.14968681 -2.879773378 2.204051908e-38
2.226470709 -14.36555862 -2.732399225 2.204051908e-38
2.286338329 -14.36992359 -2.734955311 2.204051908e-38
2.346918344 -14.37799072 -2.738266468 2.204051908e-38
2.404810429 -14.36911678 -2.738393545 2.204051908e-38
2.461924791 -14.35563755 -2.737690926 2.204051908e-38
2.527632475 -14.3912859 -2.746404409 2.204051908e-38
2.577773571 -14.3381958 -2.738228321 2.204051908e-38
2.689555168 -14.29891014 -2.734767675 2.204051908e-38
2.809970379 -14.30503941 -2.740169764 2.204051908e-38
2.864588261 -14.27932644 -2.737430096 2.204051908e-38
2.928425789 -14.2992363 -2.743479967 2.204051908e-38
3.086202621 -14.19639778 -2.730691433 2.204051908e-38
3.204343557 -14.45956039 -2.78376627 2.204051908e-38
3.395613432 -14.75986481 -2.846744776 2.204051908e-38
6.54981041 -27.45811081 -5.305848598 2.084665763e-38
6.647676468 -27.38019943 -5.295918465 2.084665763e-38
6.759239674 -27.35959244 -5.297142506 2.084665763e-38
6.863232136 -27.30853462 -5.292559624 2.084665763e-38
7.093289852 -27.29383087 -5.300588131 2.084665763e-38
7.201057434 -27.25782394 -5.299173832 2.084665763e-38
7.317507267 -27.25450706 -5.304205418 2.084665763e-38
7.41509676 -27.18124771 -5.295709133 2.084665763e-38
7.52702713 -27.16106224 -5.297629356 2.084665763e-38
7.647208691 -27.16983032 -5.305288792 2.084665763e-38
7.745488167 -27.10077667 -5.29784584 2.084665763e-38
7.857068539 -27.07880592 -5.299679756 2.084665763e-38
7.964596748 -27.04262733 -5.298821926 2.084665763e-38
8.188448906 -26.99982071 -5.303162575 2.084665763e-38
8.395739555 -26.90262413 -5.297159195 2.084665763e-38
8.514557838 -26.90252304 -5.30384016 2.084665763e-38
8.72768116 -26.82430077 -5.302077293 2.084665763e-38
8.944119453 -26.75645447 -5.302709103 2.084665763e-38
9.15482235 -26.6717186 -5.300332546 2.084665763e-38
9.249731064 -26.59945679 -5.293319225 2.084665763e-38
9.357955933 -26.56600189 -5.294103146 2.084665763e-38
9.297496796 -26.05962944 -5.200597763 2.093849312e-38
9.290687561 -25.71344757 -5.138925076 2.093849312e-38
9.292696953 -25.39905739 -5.083517075 2.093849312e-38
9.292562485 -25.0857296 -5.028246403 2.103032862e-38
9.283088684 -24.16153336 -4.865080357 2.103032862e-38
9.279698372 -23.30911827 -4.715637207 2.112216412e-38
9.287793159 -23.05928802 -4.67261076 2.112216412e-38
9.277769089 -22.7698555 -4.621477604 2.121399961e-38
9.292145729 -22.54533958 -4.583458424 2.121399961e-38
9.288432121 -22.03185654 -4.49409914 2.121399961e-38
9.291193008 -21.7932663 -4.453015327 2.130583511e-38
9.286534309 -21.54188156 -4.409241676 2.130583511e-38
9.291727066 -21.08597755 -4.331077576 2.130583511e-38
9.284304619 -20.84166908 -4.288526535 2.130583511e-38
9.301621437 -20.436903 -4.220490932 2.13976706e-38
9.278543472 -19.958992 -4.137072563 2.13976706e-38
9.283572197 -19.55693817 -4.069071293 2.13976706e-38
9.30235672 -19.3948822 -4.043102264 2.14895061e-38
9.578052521 -19.36716652 -4.061112404 2.14895061e-38
9.700472832 -19.41788483 -4.079890728 2.13976706e-38
9.770986557 -19.36394691 -4.076776981 2.13976706e-38
10.05863571 -19.35017204 -4.099118233 2.13976706e-38
10.16404057 -19.36236 -4.110323429 2.13976706e-38
10.36692238 -19.36883545 -4.129256725 2.13976706e-38
8.196444511 -14.87952518 -3.193021536 2.185684809e-38
8.136816025 -14.63178349 -3.146855116 2.185684809e-38
8.195059776 -14.5980444 -3.146655798 2.185684809e-38
8.292457581 -14.63341999 -3.161443233 2.185684809e-38
8.188112259 -14.31482124 -3.099697113 2.185684809e-38
8.396842003 -14.40966797 -3.134752274 2.185684809e-38
8.418881416 -14.31489468 -3.121474743 2.185684809e-38
8.426441193 -14.19683647 -3.103092194 2.185684809e-38
8.59913826 -14.22594643 -3.124465227 2.185684809e-38
8.742968559 -14.33342266 -3.155765295 2.185684809e-38
8.896605492 -14.19728756 -3.149187326 2.185684809e-38
8.961423874 -14.17379189 -3.151937723 2.185684809e-38
9.097517014 -14.26177692 -3.179613829 2.185684809e-38
9.292243958 -14.43870068 -3.227358818 2.185684809e-38
9.403460503 -14.48323727 -3.245737791 2.185684809e-38
12.67610931 -19.35302353 -4.348453522 2.130583511e-38
12.79882717 -19.37005234 -4.363806248 2.130583511e-38
12.89204597 -19.34164238 -4.369042873 2.130583511e-38
13.0271368 -19.37508774 -4.388393879 2.130583511e-38
13.24710751 -19.36418152 -4.409902096 2.130583511e-38
13.36449242 -19.36823463 -4.423026562 2.130583511e-38
13.4762888 -19.36326981 -4.434230328 2.130583511e-38
13.69373608 -19.34218216 -4.454464912 2.130583511e-38
13.80871391 -19.33925247 -4.466538429 2.121399961e-38
14.05165005 -19.34864426 -4.494655132 2.121399961e-38
14.18802357 -19.37216949 -4.513334274 2.121399961e-38
14.31110859 -19.37635612 -4.527673721 2.121399961e-38
14.43385792 -19.37904549 -4.541823864 2.121399961e-38
14.55334473 -19.37638474 -4.554873943 2.121399961e-38
14.67707253 -19.37839699 -4.569180012 2.121399961e-38
14.78402901 -19.35745239 -4.57821703 2.121399961e-38
14.90073204 -19.34850311 -4.590231419 2.121399961e-38
15.14961338 -19.34787369 -4.618830204 2.121399961e-38
15.29192924 -19.36872673 -4.638446331 2.121399961e-38
15.5324173 -19.35137558 -4.664045811 2.112216412e-38
15.67348003 -19.36709976 -4.682984829 2.112216412e-38
15.80419445 -19.36888695 -4.698740482 2.112216412e-38
16.06532288 -19.36888695 -4.729922771 2.112216412e-38
16.21037292 -19.38465118 -4.749647617 2.112216412e-38
16.3279171 -19.3664856 -4.761241436 2.112216412e-38
16.45763206 -19.36184692 -4.776330471 2.112216412e-38
16.85715103 -19.67105293 -4.869284153 2.103032862e-38
16.86633873 -19.52241135 -4.84923315 2.112216412e-38
16.87571144 -19.3752594 -4.829494476 2.112216412e-38
