# .PCD v0.7 - Point Cloud Data file format
VERSION 0.7
FIELDS x y z rgb
SIZE 4 4 4 4
TYPE F F F F
COUNT 1 1 1 1
WIDTH 890
HEIGHT 1
VIEWPOINT 0 0 0 1 0 0 0
POINTS 890
DATA ascii
-57.29630661 1.382245541 -5.502329826 1.864260572e-38
-57.28993607 1.151695132 -5.501229286 1.864260572e-38
-57.28338623 0.9211813807 -5.500199795 1.864260572e-38
-57.31333923 0.6912355423 -5.502770901 1.864260572e-38
-57.2840538 0.230281949 -5.499603748 1.864260572e-38
-46.28713608 2.204198245e-05 -5.498261929 1.946912519e-38
-46.28767776 -0.1860847622 -5.498366356 1.946912519e-38
-46.30238724 -0.5584118962 -5.500472546 1.946912519e-38
-46.27590942 -0.744169414 -5.497633457 1.946912519e-38
-46.28960419 -1.116692305 -5.500152588 1.946912519e-38
-46.26042557 -1.488215566 -5.497931004 1.946912519e-38
-46.26337814 -1.674510598 -5.499037743 1.946912519e-38
-46.25403214 -1.860389709 -5.498770237 1.946912519e-38
-46.26282883 -2.04703784 -5.500749588 1.946912519e-38
-46.24402618 -2.232503891 -5.499536514 1.946912519e-38
-46.27508163 -2.420508385 -5.50434351 1.946912519e-38
-46.19810486 -2.602730989 -5.496386528 1.946912519e-38
-46.20909119 -2.976229668 -5.50036335 1.946912519e-38
-46.18946457 -3.534777164 -5.502701283 1.946912519e-38
-46.1620903 -3.719387531 -5.501176834 1.946912519e-38
-46.12041855 -4.089500427 -5.499951839 1.946912519e-38
-46.108078 -4.462291718 -5.502580643 1.946912519e-38
-46.02914047 -4.641500473 -5.495342255 1.946912519e-38
-46.06367874 -4.832119942 -5.501740456 1.946912519e-38
-46.01653671 -5.388956547 -5.503470898 1.946912519e-38
-45.93474197 -5.566688061 -5.496330261 1.946912519e-38
-45.92745209 -5.75322485 -5.498173237 1.946912519e-38
-45.87935638 -6.310122967 -5.501153946 1.946912519e-38
-45.83084488 -6.679258823 -5.501569271 1.946912519e-38
-45.79750824 -6.862519264 -5.500835896 1.946912519e-38
-45.80876541 -7.052591324 -5.505547523 1.946912519e-38
-45.74108887 -7.230546951 -5.500864029 1.946912519e-38
-45.68719101 -7.410395622 -5.497920513 1.946912519e-38
-45.68153763 -7.59805727 -5.500870228 1.946912519e-38
-45.6387291 -7.77960825 -5.499437332 1.946912519e-38
-45.62030029 -7.965331078 -5.501031399 1.946912519e-38
-45.56319427 -8.333385468 -5.502046108 1.946912519e-38
-45.4781723 -8.506912231 -5.495864868 1.946912519e-38
-45.3724556 -9.244578362 -5.500342369 1.946912519e-38
-45.32868195 -9.425619125 -5.499585152 1.946912519e-38
-44.0938797 -9.724617958 -5.363387585 1.956096068e-38
-43.95711136 -9.88032341 -5.351762772 1.956096068e-38
-43.90472412 -10.05414295 -5.350266457 1.956096068e-38
-43.86135864 -10.22996616 -5.349956989 1.956096068e-38
-43.78950119 -10.3989563 -5.346236229 1.956096068e-38
-43.74820709 -10.57512283 -5.346342087 1.956096068e-38
-43.65717697 -11.11203671 -5.351205826 1.956096068e-38
-43.56531906 -11.27532196 -5.345459461 1.956096068e-38
-43.50027847 -11.63244915 -5.348782539 1.956096068e-38
-43.45892334 -11.80877686 -5.349489689 1.956096068e-38
-42.88196945 -11.83732128 -5.284288406 1.956096068e-38
-43.17331696 -12.66825771 -5.344601154 1.956096068e-38
-39.83996201 -11.86432934 -4.937817574 1.983646717e-38
-43.0639801 -13.01309204 -5.343834877 1.956096068e-38
-42.95523453 -13.1689291 -5.336876392 1.956096068e-38
-38.3262558 -11.91857433 -4.767674923 1.992830267e-38
-42.733284 -13.47766781 -5.322592735 1.956096068e-38
-36.92217255 -11.80831623 -4.604673862 2.002013816e-38
-36.76655579 -11.92167854 -4.591204643 2.002013816e-38
-42.46874237 -13.95954418 -5.310227394 1.956096068e-38
-35.44319534 -11.80831718 -4.437663078 2.011197366e-38
-42.29829407 -14.47101212 -5.310350895 1.956096068e-38
-42.23109055 -14.63791752 -5.309258461 1.956096068e-38
-42.08938599 -15.15978146 -5.314041615 1.956096068e-38
-42.00378036 -15.32001972 -5.310974121 1.956096068e-38
-41.95983124 -15.49537182 -5.313251972 1.956096068e-38
-41.76107407 -15.99685192 -5.312118053 1.956096068e-38
-41.6700325 -16.34736824 -5.317083836 1.956096068e-38
-41.59184265 -16.50991631 -5.315533161 1.956096068e-38
-41.41464615 -16.8262558 -5.310004234 1.956096068e-38
-41.34288406 -16.99103546 -5.30951643 1.956096068e-38
-41.26005554 -17.15120888 -5.307691574 1.956096068e-38
-41.15133286 -17.495327 -5.311628342 1.956096068e-38
-41.10145187 -17.66955376 -5.314316273 1.956096068e-38
-40.88477325 -17.96722031 -5.304806232 1.956096068e-38
-40.44064713 -18.16137505 -5.265958786 1.956096068e-38
-40.32522583 -18.30469131 -5.260468006 1.956096068e-38
-40.13393784 -18.41279221 -5.245126724 1.956096068e-38
-39.9891243 -18.54130363 -5.235899448 1.965279618e-38
-39.80227661 -18.64942741 -5.221210003 1.965279618e-38
-39.64699936 -18.77142715 -5.210697651 1.965279618e-38
-39.00785446 -19.24261665 -5.166697979 1.965279618e-38
-38.89925003 -19.38386726 -5.162594318 1.965279618e-38
-38.84794235 -19.55361366 -5.166172981 1.965279618e-38
-38.77511215 -19.71272278 -5.166983128 1.965279618e-38
-38.65976334 -19.85005188 -5.162209988 1.965279618e-38
-38.16714478 -19.79141045 -5.107008934 1.965279618e-38
-38.02340698 -19.91124916 -5.098446369 1.974463167e-38
-34.35838318 -18.16837883 -4.616768837 2.002013816e-38
-33.99482727 -18.15137482 -4.577684402 2.002013816e-38
-33.77506256 -18.20890427 -4.557903767 2.002013816e-38
-33.52828979 -18.60117149 -4.554553032 2.011197366e-38
-32.62524033 -18.61822701 -4.462058544 2.011197366e-38
-21.3759594 -12.31278515 -2.930274725 2.121399961e-38
-21.20913315 -12.33051205 -2.914188147 2.121399961e-38
-21.15672684 -12.41410828 -2.913809538 2.121399961e-38
-21.19102287 -12.54901886 -2.926152229 2.121399961e-38
-31.1914444 -18.64088631 -4.316337109 2.020380915e-38
-30.63482285 -18.64412498 -4.259915352 2.029564465e-38
-30.32542229 -18.62330437 -4.227275372 2.029564465e-38
-30.07850456 -18.63859177 -4.203266144 2.029564465e-38
-28.84069252 -18.03240776 -4.040364742 2.038748015e-38
-28.55257416 -18.0123291 -4.010135651 2.047931564e-38
-28.26032639 -18.30809212 -3.999810696 2.047931564e-38
-28.21349716 -18.43919945 -4.003642082 2.047931564e-38
-28.17908096 -18.57878494 -4.009322643 2.047931564e-38
-28.07031822 -18.66940498 -4.004495144 2.047931564e-38
-27.9250145 -18.73511505 -3.994478226 2.047931564e-38
-27.7220459 -18.92390442 -3.987080812 2.047931564e-38
-27.64545441 -19.03499031 -3.987038136 2.047931564e-38
-27.6257019 -19.18554115 -3.995265961 2.047931564e-38
-28.16435242 -19.89717102 -4.096184254 2.038748015e-38
-28.1764679 -20.07600212 -4.109649181 2.038748015e-38
-28.13687134 -20.39083862 -4.127652645 2.038748015e-38
-28.16445923 -20.75821114 -4.156049728 2.029564465e-38
-28.15047646 -20.92305756 -4.166360378 2.029564465e-38
-28.15226173 -21.10059357 -4.179149628 2.029564465e-38
-28.16688538 -21.28893661 -4.193989754 2.029564465e-38
-28.16808701 -21.46830368 -4.20698452 2.029564465e-38
-28.17936134 -22.386343 -4.275013924 2.029564465e-38
-28.14642525 -23.10803413 -4.325833797 2.020380915e-38
-28.13294029 -23.28691101 -4.338114738 2.020380915e-38
-28.18213081 -23.71203804 -4.374957561 2.020380915e-38
-28.17896461 -23.90348816 -4.3893466 2.020380915e-38
-28.18722343 -24.10601616 -4.405693054 2.020380915e-38
-28.12322044 -24.24771309 -4.410890579 2.020380915e-38
-27.9088726 -24.25916862 -4.392530441 2.020380915e-38
-27.71693802 -24.68538857 -4.408858299 2.020380915e-38
-27.75735092 -24.9222126 -4.43118906 2.011197366e-38
-27.8971653 -25.25104141 -4.469679832 2.011197366e-38
-29.45661926 -27.09659004 -4.754282951 1.992830267e-38
-29.29571915 -27.16682816 -4.745903492 1.992830267e-38
-30.13071632 -28.1672554 -4.899476528 1.983646717e-38
-29.90229607 -28.17983246 -4.88071537 1.983646717e-38
-29.59928894 -28.34701729 -4.868298531 1.983646717e-38
-29.48739624 -28.46798515 -4.868676662 1.983646717e-38
-29.37168884 -28.58528709 -4.868505955 1.983646717e-38
-29.27858543 -28.72474289 -4.872180462 1.983646717e-38
-29.45937157 -29.1354599 -4.921709061 1.983646717e-38
-29.19692802 -29.34399223 -4.917118073 1.983646717e-38
-29.14653587 -29.52984047 -4.928585052 1.983646717e-38
-29.01094818 -29.62981033 -4.925765991 1.983646717e-38
-28.90903282 -29.76410103 -4.928733826 1.983646717e-38
-28.41618919 -30.45829964 -4.948096752 1.983646717e-38
-28.01996613 -30.52190208 -4.921674252 1.983646717e-38
-27.92555809 -30.66562462 -4.926706314 1.983646717e-38
-27.72626305 -31.19427299 -4.957557201 1.983646717e-38
-27.72349739 -31.44483566 -4.979625702 1.974463167e-38
-27.72194099 -31.69905663 -5.002194405 1.974463167e-38
-28.17089272 -32.47493362 -5.10671854 1.965279618e-38
-28.15325928 -32.71940994 -5.127324104 1.965279618e-38
-27.88261795 -32.93689728 -5.12610054 1.965279618e-38
-27.73683739 -33.03299713 -5.123670101 1.965279618e-38
-27.7603302 -33.60598755 -5.177756786 1.965279618e-38
-21.86721039 -26.90964317 -4.118727684 2.038748015e-38
-27.74971199 -34.43047714 -5.252842903 1.956096068e-38
-27.86730766 -34.86227417 -5.301587105 1.956096068e-38
-27.59496689 -35.09648132 -5.30328989 1.956096068e-38
-27.45680046 -35.21113586 -5.303894997 1.956096068e-38
-27.28788567 -35.28611755 -5.298623085 1.956096068e-38
-27.15716362 -35.41032791 -5.300837994 1.956096068e-38
-26.99854279 -35.4981041 -5.297688961 1.956096068e-38
-26.7466011 -35.75992203 -5.304497242 1.956096068e-38
-26.58734703 -35.84651947 -5.301445961 1.956096068e-38
-26.29933929 -36.06056976 -5.301659584 1.956096068e-38
-26.16494179 -36.18087769 -5.303840637 1.956096068e-38
-26.00053024 -36.25960541 -5.300017834 1.956096068e-38
-21.42222786 -30.38782692 -4.41643095 2.020380915e-38
-24.57855988 -37.36075974 -5.312179565 1.956096068e-38
-21.54043007 -33.03107452 -4.684209347 2.002013816e-38
-21.49471855 -33.25235748 -4.703290462 1.992830267e-38
-21.52178383 -33.88879776 -4.768684387 1.992830267e-38
-21.51648712 -34.18332291 -4.797920704 1.992830267e-38
-21.49475861 -34.76567841 -4.855257034 1.983646717e-38
-23.18836212 -38.18795395 -5.306980133 1.956096068e-38
-23.02954865 -38.27232742 -5.305799007 1.956096068e-38
-22.88292122 -38.37708282 -5.307523251 1.956096068e-38
-21.44020462 -36.28832626 -5.006688595 1.974463167e-38
-22.56947899 -38.55270386 -5.306544781 1.956096068e-38
-22.41935158 -38.65181732 -5.307738304 1.956096068e-38
-22.25018692 -38.71792603 -5.30449152 1.956096068e-38
-21.48201561 -37.73155975 -5.157488823 1.965279618e-38
-21.93041039 -38.88182831 -5.30261755 1.956096068e-38
-21.61101723 -39.04589462 -5.301120758 1.956096068e-38
-21.43503571 -39.09805298 -5.296469212 1.956096068e-38
-23.12586021 -42.99874878 -5.799460888 1.91936187e-38
-20.94770622 -39.32696152 -5.292863369 1.956096068e-38
-20.32271385 -39.67832184 -5.295484066 1.956096068e-38
-20.16261482 -39.75888062 -5.295374393 1.956096068e-38
-19.98137856 -39.79727936 -5.289748192 1.956096068e-38
-19.51302719 -40.06212616 -5.293284893 1.956096068e-38
-19.34589577 -40.12796021 -5.2916646 1.956096068e-38
-19.01971245 -40.2759819 -5.290849209 1.956096068e-38
-18.92508316 -40.49634171 -5.30976963 1.956096068e-38
-18.90610504 -40.88349152 -5.350509644 1.956096068e-38
-18.90383339 -41.31370163 -5.396827698 1.946912519e-38
-18.88832092 -41.72229385 -5.440238476 1.946912519e-38
-18.72923088 -41.81747818 -5.442789078 1.946912519e-38
-18.40824127 -42.00284576 -5.447469234 1.946912519e-38
-17.88379478 -42.18263626 -5.442424774 1.946912519e-38
-17.71993065 -42.26818466 -5.444225788 1.946912519e-38
-17.5423336 -42.320858 -5.441884995 1.946912519e-38
-17.04242897 -42.55860519 -5.445635319 1.946912519e-38
-16.86433792 -42.60947037 -5.443420887 1.946912519e-38
-16.69477654 -42.68167114 -5.444026947 1.946912519e-38
-16.52010536 -42.74077988 -5.443052292 1.946912519e-38
-16.35484505 -42.82434464 -5.445276737 1.946912519e-38
-16.00676346 -42.9457283 -5.444171429 1.946912519e-38
-15.66734791 -43.09057617 -5.446387768 1.946912519e-38
-15.4794054 -43.11257553 -5.441259861 1.946912519e-38
-15.31452942 -43.19861603 -5.444304466 1.946912519e-38
-14.79146862 -43.37722397 -5.44393301 1.946912519e-38
-14.61865234 -43.44130325 -5.44455862 1.946912519e-38
-14.4455061 -43.50452805 -5.445161819 1.946912519e-38
-14.08734417 -43.59473801 -5.442099571 1.946912519e-38
-13.92169476 -43.68149185 -5.44590044 1.946912519e-38
-13.73797989 -43.71162796 -5.442728043 1.946912519e-38
-13.20903587 -43.87142181 -5.44239378 1.946912519e-38
-12.86724758 -44.01506424 -5.447202682 1.946912519e-38
-12.1433363 -44.16339493 -5.440689087 1.946912519e-38
-11.97217751 -44.23579025 -5.443635464 1.946912519e-38
-11.79684544 -44.29330826 -5.444831371 1.946912519e-38
-11.61969376 -44.34414673 -5.445296288 1.946912519e-38
-11.08153343 -44.47085953 -5.444047928 1.946912519e-38
-10.55011749 -44.62530899 -5.446985245 1.946912519e-38
-9.82583046 -44.7647438 -5.444011211 1.946912519e-38
-9.288132668 -44.89379501 -5.44568491 1.946912519e-38
-8.74047184 -44.97377014 -5.442204475 1.946912519e-38
-8.384087563 -45.072052 -5.445764542 1.946912519e-38
-8.199962616 -45.08959579 -5.443853855 1.946912519e-38
-7.847663403 -45.2144928 -5.451144695 1.946912519e-38
-7.656473637 -45.19035339 -5.444479465 1.946912519e-38
-7.472274303 -45.20584106 -5.442681789 1.946912519e-38
-7.294446945 -45.26002502 -5.445631027 1.946912519e-38
-7.109322071 -45.26914597 -5.443249226 1.946912519e-38
-6.928163528 -45.30313492 -5.443939209 1.946912519e-38
-6.74266386 -45.30818558 -5.441246033 1.946912519e-38
-6.568243504 -45.38869858 -5.447697639 1.946912519e-38
-6.017443657 -45.44206619 -5.444997787 1.946912519e-38
-5.646962643 -45.4491806 -5.440236092 1.946912519e-38
-5.470139503 -45.52092743 -5.446146965 1.946912519e-38
-5.285513878 -45.52886581 -5.44451046 1.946912519e-38
-4.734950066 -45.57862091 -5.443234921 1.946912519e-38
-4.551577091 -45.59601974 -5.44308424 1.946912519e-38
-4.368791103 -45.61968613 -5.443768024 1.946912519e-38
-4.186991215 -45.65470505 -5.445895195 1.946912519e-38
-4.003364086 -45.67053223 -5.445818424 1.946912519e-38
-3.451827049 -45.70893478 -5.445036411 1.946912519e-38
-3.26736927 -45.71295547 -5.443909168 1.946912519e-38
-3.087179422 -45.77928543 -5.450285435 1.946912519e-38
-2.820391655 -44.48630142 -5.294956207 1.956096068e-38
-2.102981567 -44.48925018 -5.290597439 1.956096068e-38
-1.924872756 -44.51448822 -5.292635441 1.956096068e-38
-1.744967341 -44.49755478 -5.289746284 1.956096068e-38
-0.4115942121 -13.2074852 -1.56962204 2.222419007e-38
-0.3564958572 -13.13521481 -1.560849786 2.222419007e-38
-0.303278774 -13.11883068 -1.558745623 2.222419007e-38
-0.2500232458 -13.09279442 -1.555519938 2.222419007e-38
-0.1455437094 -13.16625118 -1.564056754 2.222419007e-38
-0.3135917783 -44.57709503 -5.295262814 1.956096068e-38
-0.1342326999 -44.52129745 -5.288527489 1.956096068e-38
0.2238631099 -44.55382919 -5.292435169 1.956096068e-38
0.4031325579 -44.57049179 -5.294563293 1.956096068e-38
0.5827618241 -44.60491943 -5.29888916 1.956096068e-38
0.7613412738 -44.55870819 -5.293719769 1.956096068e-38
0.9415304661 -44.6063118 -5.299782753 1.956096068e-38
1.087464333 -43.27422714 -5.141992569 1.965279618e-38
0.9525523782 -28.71170616 -3.412422657 2.084665763e-38
0.8706318736 -23.40335274 -2.781911135 2.130583511e-38
0.9648612738 -23.40328407 -2.78234148 2.130583511e-38
1.041691899 -23.01819038 -2.737033844 2.130583511e-38
1.117907882 -22.68301773 -2.69769311 2.13976706e-38
1.211961627 -22.73228264 -2.704109192 2.13976706e-38
1.300961256 -22.68578529 -2.699179173 2.13976706e-38
1.390111089 -22.64715767 -2.695226192 2.13976706e-38
1.575882316 -22.68911743 -2.701640606 2.13976706e-38
1.768841982 -22.81238747 -2.71792388 2.13976706e-38
2.043739557 -22.78850555 -2.71781683 2.13976706e-38
4.345121861 -44.43153381 -5.30301857 1.956096068e-38
4.520506859 -44.3824501 -5.299285889 1.956096068e-38
5.057475567 -44.34279633 -5.301448345 1.956096068e-38
5.416593075 -44.32327652 -5.304150105 1.956096068e-38
5.77063036 -44.26188278 -5.302183628 1.956096068e-38
5.945067406 -44.21274567 -5.299119473 1.956096068e-38
6.475601673 -44.12278748 -5.297311783 1.956096068e-38
6.658265114 -44.13174057 -5.301557064 1.956096068e-38
2.376244783 -14.93500519 -1.796382785 2.204051908e-38
2.357915163 -14.44532776 -1.738610506 2.204051908e-38
2.421223402 -14.46715927 -1.74239552 2.204051908e-38
2.561563253 -14.24805546 -1.719602704 2.213235457e-38
2.697478533 -14.34101772 -1.733383775 2.204051908e-38
2.807076454 -14.29026031 -1.729920387 2.204051908e-38
2.891957998 -14.41576099 -1.746507049 2.204051908e-38
2.956271172 -14.43519211 -1.750286341 2.204051908e-38
2.980991364 -14.26390362 -1.730956197 2.204051908e-38
3.079271317 -14.44396496 -1.754295349 2.204051908e-38
3.166297913 -14.56481361 -1.770505309 2.204051908e-38
3.258792162 -14.70525169 -1.789154768 2.204051908e-38
3.31857276 -14.69510746 -1.789528966 2.204051908e-38
10.19409084 -43.50987625 -5.308320999 1.956096068e-38
9.316698074 -38.3733139 -4.690633297 1.992830267e-38
9.322068214 -37.73325348 -4.616937637 2.002013816e-38
9.315666199 -37.06667328 -4.539922714 2.011197366e-38
9.305205345 -36.4053421 -4.463467121 2.011197366e-38
9.31492424 -35.84223938 -4.398984432 2.020380915e-38
9.312375069 -35.24972534 -4.330823898 2.020380915e-38
9.313469887 -34.6885376 -4.266441822 2.029564465e-38
9.319761276 -34.16300201 -4.206378937 2.029564465e-38
9.303286552 -33.05370712 -4.078870773 2.038748015e-38
9.297568321 -32.53137207 -4.018994808 2.038748015e-38
9.306055069 -31.59737778 -3.912723541 2.047931564e-38
9.298786163 -30.66090775 -3.805894375 2.057115114e-38
9.299474716 -29.79844856 -3.707999706 2.066298664e-38
9.305858612 -29.40274429 -3.663385868 2.066298664e-38
9.299041748 -28.97578812 -3.614818096 2.075482213e-38
9.301819801 -28.58895683 -3.571195841 2.075482213e-38
9.309642792 -28.22683144 -3.530606031 2.075482213e-38
9.303308487 -27.46336746 -3.444356203 2.084665763e-38
9.299828529 -27.09419632 -3.402716875 2.084665763e-38
9.307738304 -26.0883255 -3.290251017 2.093849312e-38
9.294354439 -25.72359848 -3.248937845 2.093849312e-38
9.310872078 -25.44873619 -3.218923569 2.103032862e-38
9.297562599 -25.099226 -3.179417133 2.103032862e-38
9.300370216 -24.80024147 -3.146254539 2.103032862e-38
9.305228233 -24.2191658 -3.081926823 2.112216412e-38
9.294769287 -23.90446663 -3.046611309 2.112216412e-38
9.29531002 -23.07796478 -2.955346584 2.121399961e-38
9.284561157 -22.78652191 -2.922781467 2.121399961e-38
9.291547775 -22.54387856 -2.896425247 2.121399961e-38
9.282308578 -22.26696777 -2.865619659 2.121399961e-38
9.283810616 -22.02088928 -2.838731289 2.130583511e-38
9.281581879 -21.53040123 -2.785032034 2.130583511e-38
9.285082817 -21.30253983 -2.760362148 2.130583511e-38
9.286252975 -21.07354546 -2.73550415 2.130583511e-38
9.274033546 -20.59549713 -2.683041096 2.13976706e-38
9.274656296 -20.3776474 -2.659496546 2.13976706e-38
9.279197693 -20.17217445 -2.637527227 2.13976706e-38
9.285087585 -19.76484871 -2.59394598 2.14895061e-38
9.272061348 -19.53269196 -2.568349361 2.14895061e-38
9.286627769 -19.36208916 -2.550805092 2.14895061e-38
9.39440155 -19.386549 -2.558981419 2.14895061e-38
9.481981277 -19.36847687 -2.561607122 2.14895061e-38
9.588398933 -19.38808632 -2.569278717 2.14895061e-38
9.677765846 -19.3724308 -2.572337866 2.14895061e-38
9.779391289 -19.38056374 -2.578617334 2.14895061e-38
9.885214806 -19.39604759 -2.585943937 2.14895061e-38
10.06656361 -19.36543274 -2.592569351 2.14895061e-38
10.15343285 -19.34212685 -2.594893694 2.13976706e-38
10.26936436 -19.37335587 -2.604599237 2.13976706e-38
10.38213158 -19.39726257 -2.613402843 2.13976706e-38
10.46012115 -19.35552979 -2.613425493 2.13976706e-38
10.56919861 -19.3707943 -2.621201754 2.13976706e-38
10.66575527 -19.36221695 -2.625822067 2.13976706e-38
10.78061581 -19.38591576 -2.634891272 2.13976706e-38
8.440169334 -15.03466606 -2.048075676 2.185684809e-38
8.372000694 -14.77379417 -2.017106533 2.185684809e-38
8.443641663 -14.62482357 -2.005971909 2.185684809e-38
8.426001549 -14.19609737 -1.960963726 2.194868358e-38
8.54291153 -14.26213169 -1.974812388 2.185684809e-38
8.630400658 -14.277668 -1.981752157 2.185684809e-38
8.677825928 -14.09881592 -1.966547489 2.194868358e-38
8.986207962 -14.34028339 -2.010241032 2.185684809e-38
9.02828598 -14.27951813 -2.00679493 2.185684809e-38
12.3616457 -19.37880707 -2.730390787 2.130583511e-38
12.45174789 -19.3480854 -2.733091831 2.130583511e-38
9.288527489 -14.30621529 -2.026142836 2.185684809e-38
9.349650383 -14.27439213 -2.026942492 2.185684809e-38
12.91038799 -19.36916161 -2.765039206 2.130583511e-38
13.04164028 -19.39665794 -2.776426792 2.130583511e-38
13.24096012 -19.355196 -2.78564024 2.130583511e-38
13.36185646 -19.36442184 -2.794675827 2.130583511e-38
13.46198463 -19.34272575 -2.79933238 2.130583511e-38
13.58498287 -19.35305977 -2.808708429 2.130583511e-38
13.7160759 -19.37375069 -2.819689274 2.130583511e-38
13.94725227 -19.36817932 -2.835107803 2.130583511e-38
14.05763531 -19.35688019 -2.84170413 2.130583511e-38
14.16911125 -19.34634018 -2.848495722 2.130583511e-38
14.31368065 -19.37981987 -2.861873627 2.121399961e-38
14.44610596 -19.39549065 -2.872739792 2.121399961e-38
14.64585114 -19.33717537 -2.881450176 2.121399961e-38
15.01136398 -19.33091354 -2.907283068 2.121399961e-38
15.16913128 -19.3727932 -2.922729969 2.121399961e-38
16.03848267 -19.33651924 -2.984182596 2.112216412e-38
16.28581047 -19.31653595 -3.001209497 2.112216412e-38
16.46376801 -19.36906624 -3.01962924 2.112216412e-38
16.85095596 -19.50461006 -3.061784029 2.112216412e-38
16.87491226 -19.37433815 -3.051959038 2.112216412e-38
17.00973892 -19.37133598 -3.062233686 2.112216412e-38
12.69203377 -14.33751392 -2.274531603 2.167317709e-38
17.27178574 -19.35369873 -3.081296921 2.112216412e-38
17.42191696 -19.36465836 -3.094167948 2.112216412e-38
17.54696846 -19.34666443 -3.102538586 2.112216412e-38
17.67974472 -19.33628654 -3.112246752 2.103032862e-38
17.8367672 -19.3512516 -3.126170397 2.103032862e-38
18.28268242 -19.36119652 -3.163167238 2.103032862e-38
18.54736519 -19.3278141 -3.181972742 2.103032862e-38
18.71090317 -19.34199142 -3.196664095 2.103032862e-38
18.88392639 -19.36448479 -3.212901115 2.103032862e-38
19.00186729 -19.32935524 -3.219722271 2.103032862e-38
19.1676693 -19.34188461 -3.234616041 2.093849312e-38
14.8983326 -14.79389477 -2.493993282 2.14895061e-38
14.97289085 -14.74887562 -2.496530056 2.14895061e-38
15.05959797 -14.48061275 -2.481685877 2.14895061e-38
15.11220264 -14.41472435 -2.480785847 2.14895061e-38
15.19071388 -14.37344646 -2.484169483 2.14895061e-38
15.10483456 -14.17753887 -2.460786581 2.15813416e-38
15.37117481 -14.31174564 -2.494784355 2.14895061e-38
15.52148342 -14.33562946 -2.509804726 2.14895061e-38
15.58126068 -14.27520561 -2.510172606 2.14895061e-38
15.62602615 -14.20110512 -2.508167505 2.14895061e-38
15.98457813 -14.41005516 -2.556399822 2.14895061e-38
21.64398003 -19.35485649 -3.449031591 2.084665763e-38
16.11152077 -14.29136848 -2.558242321 2.14895061e-38
21.9925518 -19.35061455 -3.479672432 2.084665763e-38
22.17964363 -19.35762596 -3.496937752 2.084665763e-38
22.31720543 -19.32017708 -3.506352663 2.075482213e-38
22.53879738 -19.35404587 -3.528914452 2.075482213e-38
22.71172714 -19.3444519 -3.54378438 2.075482213e-38
22.87313461 -19.32381821 -3.556820154 2.075482213e-38
23.67782211 -19.35984612 -3.633067608 2.066298664e-38
23.8268795 -19.32240677 -3.643989086 2.066298664e-38
24.23747826 -19.33447456 -3.682896137 2.066298664e-38
24.43403625 -19.33105469 -3.700923681 2.066298664e-38
24.63479233 -19.32936668 -3.719532251 2.066298664e-38
24.82129669 -19.31500435 -3.735938072 2.066298664e-38
25.22630882 -19.30656242 -3.773412466 2.057115114e-38
25.70032883 -19.34367561 -3.820929527 2.057115114e-38
25.88183975 -19.31781387 -3.836339474 2.057115114e-38
26.10114479 -19.31859779 -3.857303143 2.057115114e-38
26.33045578 -19.3249855 -3.879679918 2.057115114e-38
26.56922722 -19.33637238 -3.903377056 2.047931564e-38
26.75226784 -19.30555153 -3.918834209 2.047931564e-38
27.24127197 -19.3272934 -3.967576504 2.047931564e-38
27.93733978 -19.31888962 -4.034725666 2.038748015e-38
28.15462303 -19.30230904 -4.054867268 2.038748015e-38
22.53133202 -15.31429768 -3.236100912 2.093849312e-38
22.59181213 -15.22298527 -3.235972881 2.103032862e-38
22.5561161 -15.06744957 -3.222158432 2.103032862e-38
22.44278336 -14.86162663 -3.197409153 2.103032862e-38
22.44714355 -14.60623932 -3.181194782 2.103032862e-38
22.60329247 -14.57885647 -3.194992304 2.103032862e-38
22.60779381 -14.45340919 -3.187390566 2.103032862e-38
22.71834946 -14.39575768 -3.194793701 2.103032862e-38
22.72547531 -14.27256012 -3.187700033 2.103032862e-38
22.73286057 -14.15008831 -3.180730581 2.103032862e-38
31.89379501 -19.32261848 -4.429580212 2.011197366e-38
32.4517746 -19.30571556 -4.48537159 2.011197366e-38
32.73961639 -19.29918289 -4.514396191 2.011197366e-38
33.03081512 -19.29232788 -4.543817043 2.011197366e-38
33.35754776 -19.3037529 -4.578052998 2.002013816e-38
33.66435623 -19.30106926 -4.609473705 2.002013816e-38
34.0226326 -19.32515717 -4.647853851 2.002013816e-38
34.3098526 -19.30629539 -4.67645216 2.002013816e-38
34.9436264 -19.29471016 -4.741543293 1.992830267e-38
35.281147 -19.29641533 -4.776778221 1.992830267e-38
36.35676956 -19.31879044 -4.890505791 1.983646717e-38
28.58663368 -15.04291725 -3.837142706 2.057115114e-38
28.63420868 -14.77521133 -3.827459097 2.057115114e-38
28.71645546 -14.67177486 -3.830537558 2.057115114e-38
28.77866364 -14.4129734 -3.823254108 2.057115114e-38
28.81336212 -14.28575325 -3.820203543 2.057115114e-38
28.86545753 -14.16730881 -3.819530249 2.057115114e-38
29.23626518 -14.20375633 -3.861008644 2.057115114e-38
29.23584175 -14.05856705 -3.853457212 2.057115114e-38
40.70815277 -18.974226 -5.335028172 1.956096068e-38
40.78671646 -18.8116436 -5.335371494 1.956096068e-38
40.86183167 -18.64745331 -5.335349083 1.956096068e-38
41.01922226 -18.32224464 -5.336490631 1.956096068e-38
41.10430908 -18.16241264 -5.338020325 1.956096068e-38
41.22672653 -17.82170296 -5.335134983 1.956096068e-38
35.26343918 -15.0759182 -4.555549622 2.011197366e-38
35.13053894 -14.85235405 -4.530631542 2.011197366e-38
35.07711411 -14.66382027 -4.516102791 2.011197366e-38
35.1926384 -14.38083649 -4.515944004 2.011197366e-38
35.21828842 -14.22637653 -4.511860847 2.011197366e-38
35.38210678 -14.12739086 -4.52553606 2.011197366e-38
35.55609512 -14.03139114 -4.540540218 2.011197366e-38
41.92163467 -16.15510178 -5.336662292 1.956096068e-38
41.98914719 -15.98755455 -5.337031364 1.956096068e-38
42.11798096 -15.65007019 -5.337241173 1.956096068e-38
42.18391037 -15.48185539 -5.337665081 1.956096068e-38
42.28551865 -15.13451958 -5.334952831 1.956096068e-38
42.38269043 -14.97736073 -5.339572906 1.956096068e-38
42.47282791 -14.62619495 -5.335943222 1.956096068e-38
42.54508591 -14.46000862 -5.337670803 1.956096068e-38
42.57471466 -14.27946091 -5.334162712 1.956096068e-38
42.79362869 -13.97112751 -5.347328186 1.956096068e-38
42.95407867 -13.45248604 -5.346714973 1.956096068e-38
43.0044136 -13.2786665 -5.346292496 1.956096068e-38
43.05360031 -13.1045084 -5.345813751 1.956096068e-38
43.21725464 -12.58689213 -5.346897125 1.956096068e-38
43.34383774 -12.24660301 -5.35020256 1.956096068e-38
43.37362289 -12.06694031 -5.347848415 1.956096068e-38
43.46519852 -11.71675205 -5.347350597 1.956096068e-38
43.51974869 -11.54399967 -5.348309994 1.956096068e-38
43.59031296 -11.37534142 -5.351317883 1.956096068e-38
43.72237778 -10.84836197 -5.351080894 1.956096068e-38
43.83752441 -10.13155651 -5.34454298 1.956096068e-38
43.90498352 -9.961382866 -5.34784174 1.956096068e-38
43.91785812 -9.778815269 -5.344568253 1.956096068e-38
45.23412704 -9.690877914 -5.495093822 1.946912519e-38
45.31233597 -9.517292976 -5.499909878 1.946912519e-38
45.32741165 -9.330354691 -5.497136116 1.946912519e-38
45.3905983 -9.15334034 -5.500299931 1.946912519e-38
45.46703339 -8.788941383 -5.500819206 1.946912519e-38
40.61539078 -7.681852341 -4.910070896 1.983646717e-38
40.47734451 -7.319179058 -4.886109829 1.983646717e-38
40.4633255 -6.981155872 -4.877486229 1.983646717e-38
40.51003647 -6.821640015 -4.879768848 1.983646717e-38
40.52885437 -6.490167141 -4.875594139 1.983646717e-38
42.90380478 -6.16466856 -5.148705959 1.965279618e-38
44.02204514 -6.144804955 -5.279891491 1.956096068e-38
45.87926865 -6.028428078 -5.496654034 1.946912519e-38
45.99576187 -5.292878151 -5.4997015 1.946912519e-38
46.01410294 -4.920476437 -5.496985912 1.946912519e-38
46.06513596 -4.738705158 -5.500762463 1.946912519e-38
46.06303024 -4.551444054 -5.498282433 1.946912519e-38
46.10224915 -4.368251801 -5.500823021 1.946912519e-38
46.12042999 -3.996105433 -5.498980522 1.946912519e-38
46.17737961 -3.814102411 -5.503898621 1.946912519e-38
46.1400795 -3.624323845 -5.497671604 1.946912519e-38
46.20679474 -3.255998373 -5.502323151 1.946912519e-38
46.23653793 -2.698176861 -5.501588821 1.946912519e-38
46.21279144 -2.510416746 -5.497520924 1.946912519e-38
46.28156662 -2.141119242 -5.503475189 1.946912519e-38
46.25268936 -1.767237544 -5.498173237 1.946912519e-38
46.24674225 -1.580877542 -5.496665955 1.946912519e-38
46.27595901 -1.395645261 -5.499429226 1.946912519e-38
46.28317261 -0.8373704553 -5.49868679 1.946912519e-38
46.28990555 -0.6513487101 -5.499130249 1.946912519e-38
46.28704453 -0.4652194381 -5.498523712 1.946912519e-38
46.2999115 -0.09308528155 -5.499785423 1.946912519e-38
46.27776337 0.09299585968 -5.497155666 1.946912519e-38
46.29602051 0.4652768075 -5.499590874 1.946912519e-38
46.30805588 1.210274935 -5.502620697 1.946912519e-38
46.26397324 1.395260811 -5.498002529 1.946912519e-38
46.27591705 1.768114567 -5.500934601 1.946912519e-38
46.27174759 1.954284191 -5.501327038 1.946912519e-38
46.25986099 2.326483965 -5.501962662 1.946912519e-38
46.17952728 3.440672159 -5.500680447 1.946912519e-38
46.15705872 3.625624895 -5.49969244 1.946912519e-38
46.14175415 3.811125755 -5.499660015 1.946912519e-38
46.14201355 3.997967482 -5.501554012 1.946912519e-38
46.1229744 4.183188438 -5.501243591 1.946912519e-38
46.06991959 4.739185333 -5.501333714 1.946912519e-38
46.02777481 4.921918392 -5.498620033 1.946912519e-38
46.01437759 5.107636452 -5.499427319 1.946912519e-38
45.97468185 5.290429592 -5.497180462 1.946912519e-38
45.98555756 5.479077816 -5.501071453 1.946912519e-38
45.90877151 5.84461832 -5.497327328 1.946912519e-38
45.86303329 6.026273251 -5.494710445 1.946912519e-38
44.53987503 6.582569599 -5.348173618 1.956096068e-38
44.55920029 6.768574715 -5.353719234 1.956096068e-38
44.4871254 6.940701962 -5.348368645 1.956096068e-38
44.45468903 7.118813038 -5.347865582 1.956096068e-38
44.3915062 7.291844845 -5.343749046 1.956096068e-38
44.40118408 7.476861477 -5.348487377 1.956096068e-38
44.16170502 8.720876694 -5.347090721 1.956096068e-38
44.11328506 9.080421448 -5.349895954 1.956096068e-38
44.0425148 9.25056076 -5.345781326 1.956096068e-38
44.03928757 9.434885025 -5.349948883 1.956096068e-38
43.99579239 9.610705376 -5.34931612 1.956096068e-38
43.90763474 9.776539803 -5.34333086 1.956096068e-38
43.88101196 9.955927849 -5.344920158 1.956096068e-38
43.44313431 10.40902615 -5.306488991 1.956096068e-38
42.74303055 10.42313671 -5.226047516 1.965279618e-38
41.95584106 10.41003418 -5.134876728 1.965279618e-38
41.27446365 10.41728592 -5.056568623 1.974463167e-38
40.55002213 10.40802574 -4.972903252 1.974463167e-38
37.42895126 10.4130888 -4.614888191 2.002013816e-38
35.73791122 10.40856647 -4.421542645 2.011197366e-38
35.25603867 10.42214584 -4.367073059 2.020380915e-38
34.71148682 10.41308498 -4.3047719 2.020380915e-38
34.21095657 10.4129982 -4.247850418 2.029564465e-38
33.71715164 10.41098595 -4.191699505 2.029564465e-38
33.27942657 10.42253971 -4.142457485 2.038748015e-38
32.80286407 10.41828442 -4.088317871 2.038748015e-38
31.89962006 10.41446209 -3.986052275 2.047931564e-38
31.45821571 10.41048813 -3.936094522 2.047931564e-38
31.06375313 10.41867733 -3.891945124 2.047931564e-38
30.25429726 10.4185257 -3.800902843 2.057115114e-38
29.87405014 10.42210197 -3.758363008 2.066298664e-38
29.10274124 10.41622829 -3.671744585 2.066298664e-38
28.7210598 10.41004562 -3.628840685 2.066298664e-38
27.67402649 10.40981674 -3.512157202 2.075482213e-38
27.35913277 10.41710186 -3.477481127 2.084665763e-38
26.69422913 10.41043568 -3.403497934 2.084665763e-38
26.10557747 10.42343998 -3.339022875 2.093849312e-38
25.78270531 10.41487885 -3.303054094 2.093849312e-38
25.50740623 10.42314243 -3.273127317 2.093849312e-38
25.20211411 10.41681957 -3.239300489 2.093849312e-38
24.89858627 10.40874481 -3.20563817 2.103032862e-38
24.10445595 10.42001343 -3.119350433 2.103032862e-38
23.83030128 10.41539192 -3.089262486 2.112216412e-38
23.61076164 10.43268394 -3.066215277 2.112216412e-38
23.29069519 10.40335655 -3.030056715 2.112216412e-38
23.07444 10.41824245 -3.007348537 2.112216412e-38
22.70085907 10.47007179 -2.969527721 2.121399961e-38
22.63393402 10.54976845 -2.966302633 2.121399961e-38
22.63073158 10.65922546 -2.971473455 2.121399961e-38
22.58080292 10.74683571 -2.970567465 2.121399961e-38
38.00943756 18.4659729 -5.019614697 1.974463167e-38
37.91199493 18.60737801 -5.016584396 1.974463167e-38
37.82924271 18.75584412 -5.015571117 1.974463167e-38
37.76010513 18.91106224 -5.016443729 1.974463167e-38
37.63604355 19.03853798 -5.010089874 1.974463167e-38
25.97290039 13.27003765 -3.464567661 2.084665763e-38
25.46256065 13.26851559 -3.410582304 2.084665763e-38
24.48299789 13.26292896 -3.307538509 2.093849312e-38
24.25800514 13.26745605 -3.284313679 2.093849312e-38
24.04298592 13.40210915 -3.26970458 2.093849312e-38
24.02584267 13.51943207 -3.274791002 2.093849312e-38
24.02696037 13.7755661 -3.289882898 2.093849312e-38
24.00274277 13.89018822 -3.294191599 2.093849312e-38
24.00098801 14.01825523 -3.301621199 2.093849312e-38
24.05364609 14.17899799 -3.316739798 2.093849312e-38
35.91362381 21.56109619 -4.975857258 1.974463167e-38
36.11726379 21.8813324 -5.01615572 1.974463167e-38
35.9434967 22.17305946 -5.01662159 1.974463167e-38
35.76154327 22.45975685 -5.016268253 1.974463167e-38
35.56800079 22.73897362 -5.0145998 1.974463167e-38
35.48902893 22.88999367 -5.016401291 1.974463167e-38
35.41265869 23.04281616 -5.018656731 1.974463167e-38
35.27062225 23.15275192 -5.011678696 1.974463167e-38
35.21154404 23.31706619 -5.016562939 1.974463167e-38
35.09396744 23.44266891 -5.013196945 1.974463167e-38
34.80878448 23.86424446 -5.013208866 1.974463167e-38
34.53897476 24.29669762 -5.016182423 1.974463167e-38
34.4830246 24.46512032 -5.022297859 1.974463167e-38
34.35270691 24.58089256 -5.017670631 1.974463167e-38
34.23378754 24.70446777 -5.014765739 1.974463167e-38
34.13721848 24.84408379 -5.015209675 1.974463167e-38
34.05228806 24.99227142 -5.017449856 1.974463167e-38
33.53269958 25.66364479 -5.015893936 1.974463167e-38
33.42401505 25.79419708 -5.015105724 1.974463167e-38
33.32374954 25.9312191 -5.015662193 1.974463167e-38
33.1067543 26.19239807 -5.014536381 1.974463167e-38
25.82131195 20.59783363 -3.92354846 2.047931564e-38
25.42062187 20.61481667 -3.887685299 2.057115114e-38
25.21199608 20.61418343 -3.868525028 2.057115114e-38
24.77443886 20.59099007 -3.826663733 2.057115114e-38
24.58154869 20.59830666 -3.809531927 2.057115114e-38
24.38424873 20.60039711 -3.79178071 2.057115114e-38
23.99724388 20.60635948 -3.75725174 2.057115114e-38
23.93951607 20.72457695 -3.761236906 2.057115114e-38
23.89995003 20.85899353 -3.768127203 2.057115114e-38
23.9118557 21.38285446 -3.810442686 2.057115114e-38
31.10423088 28.49698067 -5.010949612 1.974463167e-38
30.99253464 28.62467766 -5.011454105 1.974463167e-38
14.23679447 13.25554276 -2.310673952 2.167317709e-38
13.90127468 13.25968361 -2.281989336 2.167317709e-38
13.78021145 13.2504158 -2.270848513 2.167317709e-38
13.64432812 13.22571754 -2.257183313 2.167317709e-38
13.56152248 13.25160885 -2.252285242 2.167317709e-38
13.40912533 13.20847988 -2.235774517 2.167317709e-38
13.24171066 13.25501823 -2.225548029 2.167317709e-38
13.15242195 13.27192783 -2.219512939 2.176501259e-38
13.00968552 13.23388577 -2.204389572 2.176501259e-38
12.78923321 13.22058296 -2.184983015 2.176501259e-38
12.69096947 13.22498322 -2.177261114 2.176501259e-38
12.59334087 13.22929001 -2.169591904 2.176501259e-38
12.40934277 13.24762821 -2.15618825 2.176501259e-38
12.30405045 13.3487072 -2.156478643 2.176501259e-38
12.26602554 13.52405453 -2.16881156 2.176501259e-38
12.29805088 13.66938114 -2.184130669 2.176501259e-38
12.30751705 14.01623917 -2.215616941 2.176501259e-38
25.35079575 29.3429203 -4.606167316 2.002013816e-38
25.13864136 29.33492088 -4.588989735 2.002013816e-38
24.72706985 29.32863235 -4.55682373 2.002013816e-38
24.34217453 29.34770775 -4.529174805 2.011197366e-38
24.04425049 29.46746635 -4.517703533 2.011197366e-38
24.03592682 29.94561195 -4.561271667 2.002013816e-38
24.03004456 30.18605042 -4.583169937 2.002013816e-38
26.16703796 33.14304733 -5.016052246 1.974463167e-38
25.89589119 33.34742355 -5.015311241 1.974463167e-38
25.78422928 33.48058319 -5.019708633 1.974463167e-38
25.62390327 33.55054474 -5.014712811 1.974463167e-38
25.50043678 33.6686058 -5.016996861 1.974463167e-38
25.35160637 33.75320816 -5.014374733 1.974463167e-38
24.95379448 34.07157135 -5.016597271 1.974463167e-38
24.80412483 34.15438843 -5.014070034 1.974463167e-38
24.53923416 34.36744308 -5.016219616 1.974463167e-38
24.41438675 34.4848671 -5.018995285 1.974463167e-38
13.83518505 20.57683754 -2.945357084 2.121399961e-38
13.72275925 20.5878849 -2.939007759 2.121399961e-38
13.5958643 20.57626152 -2.929521084 2.121399961e-38
13.37007236 20.59260559 -2.916462183 2.121399961e-38
13.12958431 20.5826664 -2.90000844 2.121399961e-38
12.99614239 20.5552578 -2.888753414 2.121399961e-38
12.5565691 20.58550072 -2.864268303 2.121399961e-38
12.43093967 20.56504059 -2.854429245 2.121399961e-38
12.20064926 21.53002548 -2.939468622 2.121399961e-38
20.64239311 36.77070999 -5.009039402 1.974463167e-38
20.51743507 36.89485931 -5.01467371 1.974463167e-38
20.36947632 36.97793579 -5.014797211 1.974463167e-38
19.92683029 37.22983932 -5.016000748 1.974463167e-38
19.75759506 37.27302933 -5.011077881 1.974463167e-38
19.6426506 37.41894913 -5.020039558 1.974463167e-38
19.47035599 37.4557991 -5.014442921 1.974463167e-38
19.16219139 37.59858322 -5.012770176 1.974463167e-38
18.86468315 37.76222992 -5.014204502 1.974463167e-38
18.69793892 37.80784225 -5.010238171 1.974463167e-38
18.56210709 37.91597748 -5.014639854 1.974463167e-38
14.20577908 29.31537437 -3.869567156 2.057115114e-38
14.06725788 29.32936287 -3.863919735 2.057115114e-38
13.49012184 29.32626343 -3.834442854 2.057115114e-38
12.91599655 29.31057549 -3.804759741 2.057115114e-38
12.36031055 29.31818771 -3.779454708 2.057115114e-38
15.76856804 39.14934921 -5.013441086 1.974463167e-38
15.62442112 39.24599075 -5.017731667 1.974463167e-38
15.2962904 39.3392067 -5.013764858 1.974463167e-38
15.1468935 39.42348099 -5.016703129 1.974463167e-38
14.99566841 39.50348663 -5.019172668 1.974463167e-38
14.82518005 39.5325737 -5.015257359 1.974463167e-38
14.66476822 39.58818436 -5.014791489 1.974463167e-38
14.15712833 38.69459534 -4.894348621 1.983646717e-38
13.09792709 38.6650238 -4.849256516 1.983646717e-38
12.93540859 38.69642639 -4.846623421 1.983646717e-38
12.75767326 38.68119812 -4.8382411 1.983646717e-38
12.4109726 38.67247772 -4.824511528 1.992830267e-38
12.19089794 39.06337357 -4.860925198 1.983646717e-38
12.16924095 39.55237198 -4.915582657 1.983646717e-38
12.25311852 40.40211868 -5.015059948 1.974463167e-38
11.93360996 40.51873016 -5.017463684 1.974463167e-38
11.60329151 40.59879303 -5.01566267 1.974463167e-38
3.722304821 13.22493362 -1.631973267 2.213235457e-38
3.661963701 13.21401787 -1.628798008 2.213235457e-38
3.600526333 13.19824123 -1.625056505 2.213235457e-38
3.498292446 13.24188709 -1.626913667 2.213235457e-38
3.382728338 13.23441982 -1.622607231 2.213235457e-38
3.318090916 13.202528 -1.617043018 2.213235457e-38
3.266600847 13.22227669 -1.617840767 2.213235457e-38
3.20865798 13.21570683 -1.615442276 2.213235457e-38
3.161118746 13.25200844 -1.618322134 2.213235457e-38
3.088027716 13.18011379 -1.608011365 2.213235457e-38
2.862784863 13.16864681 -1.600792885 2.213235457e-38
2.807749033 13.1703186 -1.599605083 2.213235457e-38
2.75933814 13.20327759 -1.602252245 2.222419007e-38
2.700884342 13.18814945 -1.599084973 2.222419007e-38
2.645592928 13.18764591 -1.597714782 2.222419007e-38
2.545191526 13.23820782 -1.601318002 2.222419007e-38
2.479825258 13.18383884 -1.593518734 2.222419007e-38
2.426211834 13.19045925 -1.593120217 2.222419007e-38
2.321507454 13.2176609 -1.594107985 2.222419007e-38
2.212059021 13.21734619 -1.591865897 2.222419007e-38
1.882470369 13.19552231 -1.583315015 2.222419007e-38
1.778821468 13.22883034 -1.585536599 2.222419007e-38
1.761699677 13.51255035 -1.618676066 2.213235457e-38
1.760472059 13.94003487 -1.669050694 2.213235457e-38
2.513834953 20.5703125 -2.461640358 2.15813416e-38
2.346686363 20.57510376 -2.459873676 2.15813416e-38
2.260866404 20.55621529 -2.45651269 2.15813416e-38
0.8374750614 8.563667297 -1.022094369 2.259153205e-38
0.8002708554 8.537407875 -1.018568635 2.259153205e-38
0.7305400372 8.531054497 -1.017076373 2.259153205e-38
0.696369648 8.535554886 -1.01726532 2.259153205e-38
0.6654838324 8.582555771 -1.022545218 2.259153205e-38
1.537886381 25.05435753 -2.981705189 2.112216412e-38
1.438999653 25.09248924 -2.985530138 2.112216412e-38
1.337823272 25.09268379 -2.984889269 2.112216412e-38
1.202727318 26.57587242 -3.160069942 2.103032862e-38
1.181486726 28.65710449 -3.406951666 2.084665763e-38
1.120792508 44.59915924 -5.299426556 1.956096068e-38
0.9400239587 44.53344345 -5.291124821 1.956096068e-38
0.7618268728 44.58641815 -5.297010899 1.956096068e-38
0.5821318626 44.55313492 -5.2927351 1.956096068e-38
0.04478673264 44.55895233 -5.29297781 1.956096068e-38
-0.1342330724 44.52916718 -5.289461613 1.956096068e-38
-0.3135163784 44.5676651 -5.294140339 1.956096068e-38
-0.6717762947 44.56166077 -5.293900013 1.956096068e-38
-0.8499860764 44.50984573 -5.288105965 1.956096068e-38
-1.029394031 44.52747726 -5.290649891 1.956096068e-38
-1.566781878 44.52520752 -5.29224062 1.956096068e-38
-1.746404767 44.5354805 -5.294253826 1.956096068e-38
-1.925117254 44.52045059 -5.293344498 1.956096068e-38
-2.103352785 44.49752426 -5.291579723 1.956096068e-38
-2.282532454 44.49513626 -5.292345047 1.956096068e-38
-2.71589756 45.75038528 -5.444068432 1.946912519e-38
-2.899561167 45.73560715 -5.443652153 1.946912519e-38
-3.082575798 45.71103287 -5.442158222 1.946912519e-38
-3.267677069 45.71772385 -5.444470882 1.946912519e-38
-3.451499462 45.70518112 -5.444589138 1.946912519e-38
-3.635104179 45.6895256 -5.444420815 1.946912519e-38
-3.817625523 45.66117859 -5.442828178 1.946912519e-38
-4.001628399 45.65085602 -5.443470478 1.946912519e-38
-4.188057423 45.66656494 -5.44730711 1.946912519e-38
-4.554919243 45.62996292 -5.447133064 1.946912519e-38
-5.100904942 45.53634262 -5.442905426 1.946912519e-38
-5.287154675 45.54315186 -5.446216583 1.946912519e-38
-5.47029686 45.52259827 -5.446342468 1.946912519e-38
-5.831186295 45.43861008 -5.44173336 1.946912519e-38
-6.380718708 45.37934113 -5.443429947 1.946912519e-38
-6.564350605 45.36207199 -5.444500923 1.946912519e-38
-6.7450037 45.32415771 -5.443165779 1.946912519e-38
-7.113626003 45.29676056 -5.446563721 1.946912519e-38
-7.291858673 45.24422836 -5.44372797 1.946912519e-38
-7.477682114 45.23865891 -5.446631432 1.946912519e-38
-7.838216305 45.16029358 -5.444606304 1.946912519e-38
-8.383971214 45.07165527 -5.445714474 1.946912519e-38
-8.742543221 44.98455811 -5.443509102 1.946912519e-38
-8.928800583 44.9767952 -5.44686842 1.946912519e-38
-9.102297783 44.90476227 -5.442533493 1.946912519e-38
-9.27841568 44.84688568 -5.439996243 1.946912519e-38
-9.468871117 44.85781479 -5.445894718 1.946912519e-38
-9.64567852 44.8033638 -5.443946362 1.946912519e-38
-9.83242321 44.79468918 -5.447701931 1.946912519e-38
-10.36643505 44.64942932 -5.444795609 1.946912519e-38
-10.73020554 44.58594513 -5.447398186 1.946912519e-38
-10.90162754 44.51088715 -5.443538666 1.946912519e-38
-11.08051491 44.46694183 -5.443566799 1.946912519e-38
-11.26063156 44.42771149 -5.444262028 1.946912519e-38
-11.61725998 44.33504486 -5.444176197 1.946912519e-38
-11.79086304 44.27093124 -5.44207859 1.946912519e-38
-11.98042679 44.26636124 -5.447394848 1.946912519e-38
-12.1439352 44.16571045 -5.440972805 1.946912519e-38
-12.32704639 44.13680267 -5.443471909 1.946912519e-38
-12.49506378 44.05403137 -5.439414501 1.946912519e-38
-12.68826294 44.05978012 -5.446377754 1.946912519e-38
-12.86909103 44.02146912 -5.447992802 1.946912519e-38
-13.03553677 43.93426514 -5.443642139 1.946912519e-38
-13.20999718 43.87476349 -5.442806244 1.946912519e-38
-13.74092484 43.721138 -5.443910122 1.946912519e-38
-13.91527939 43.66138458 -5.443392754 1.946912519e-38
-14.27287865 43.56962967 -5.446084023 1.946912519e-38
-14.43770313 43.4811058 -5.442229748 1.946912519e-38
-14.61350536 43.42605209 -5.442647457 1.946912519e-38
-14.79928493 43.40018082 -5.446818829 1.946912519e-38
-15.32374477 43.22468185 -5.447588921 1.946912519e-38
-15.48548794 43.12958145 -5.443404675 1.946912519e-38
-15.66837883 43.09349442 -5.446755886 1.946912519e-38
-15.83253098 43.00585938 -5.443678856 1.946912519e-38
-16.01019287 42.95497894 -5.445343018 1.946912519e-38
-16.18209076 42.88857651 -5.445126534 1.946912519e-38
-16.36071014 42.83983231 -5.447244167 1.946912519e-38
-16.86698723 42.61624908 -5.444284439 1.946912519e-38
-17.21116257 42.48442078 -5.444945335 1.946912519e-38
-17.38204575 42.41545868 -5.445018768 1.946912519e-38
-17.71601105 42.25888443 -5.44302702 1.946912519e-38
-17.89741898 42.21484756 -5.446579456 1.946912519e-38
-18.05969429 42.12561417 -5.444377899 1.946912519e-38
-18.22946548 42.05396271 -5.444554806 1.946912519e-38
-18.39663315 41.9764061 -5.444044113 1.946912519e-38
-18.4839344 41.26983643 -5.371509075 1.956096068e-38
-18.54037857 40.51935959 -5.293063641 1.956096068e-38
-18.88173294 40.40372849 -5.297614098 1.956096068e-38
-19.01499176 40.26597977 -5.289535046 1.956096068e-38
-19.18809128 40.2131424 -5.292683125 1.956096068e-38
-19.35015869 40.13687897 -5.292840958 1.956096068e-38
-19.52050781 40.07749176 -5.295315742 1.956096068e-38
-19.65948868 39.95405197 -5.289410591 1.956096068e-38
-19.82538223 39.88568497 -5.290860653 1.956096068e-38
-20.14214516 39.71854019 -5.290000916 1.956096068e-38
-20.31187439 39.65720749 -5.292665005 1.956096068e-38
-20.46188164 39.55735779 -5.290275097 1.956096068e-38
-20.63190842 39.49619675 -5.293142796 1.956096068e-38
-20.79034042 39.41261673 -5.293100357 1.956096068e-38
-20.67743301 38.81956863 -5.22457695 1.965279618e-38
-21.10568428 39.24256897 -5.292881489 1.956096068e-38
-21.26307487 39.15706635 -5.292835236 1.956096068e-38
-21.43843842 39.10432053 -5.297312737 1.956096068e-38
-21.73169899 38.894104 -5.29233408 1.956096068e-38
-20.67383003 36.65393448 -4.998782158 1.974463167e-38
-22.20978355 38.64772034 -5.2948699 1.956096068e-38
-22.51102257 38.45289612 -5.292804718 1.956096068e-38
-22.67599678 38.38000107 -5.295274258 1.956096068e-38
-22.82465744 38.27936935 -5.294008255 1.956096068e-38
-22.98039436 38.19070816 -5.294479847 1.956096068e-38
-23.10861397 38.05665588 -5.288731575 1.956096068e-38
-23.27092743 37.97898483 -5.290894985 1.956096068e-38
-23.43367958 37.90172958 -5.293213367 1.956096068e-38
-23.58643532 37.80814362 -5.293343544 1.956096068e-38
-23.75247192 37.73565292 -5.296519279 1.956096068e-38
-24.04620552 37.52961731 -5.294565201 1.956096068e-38
-24.50632668 37.25099945 -5.296569824 1.956096068e-38
-24.66089058 37.159729 -5.297646046 1.956096068e-38
-24.94129372 36.93427277 -5.293920994 1.956096068e-38
-25.1023674 36.85248566 -5.296619892 1.956096068e-38
-25.23365021 36.7270546 -5.29312849 1.956096068e-38
-25.66785622 36.41033936 -5.29171133 1.956096068e-38
-25.83575058 36.33743668 -5.296169281 1.956096068e-38
-25.98245811 36.23440933 -5.29633522 1.956096068e-38
-26.12065506 36.11966324 -5.294867039 1.956096068e-38
-26.42534256 35.92906189 -5.297902107 1.956096068e-38
-26.56206322 35.81245422 -5.296408176 1.956096068e-38
-26.70682335 35.70675659 -5.296610355 1.956096068e-38
-26.87640762 35.63389969 -5.301787376 1.956096068e-38
-27.1597271 35.41370773 -5.301343441 1.956096068e-38
-27.30925369 35.31378555 -5.30277586 1.956096068e-38
-27.57404137 35.06991196 -5.299273014 1.956096068e-38
-27.7205925 34.96607208 -5.300378323 1.956096068e-38
